21.739321 -32.390392 -11.537772 0.183100 0.683600 -0.706500 
12.400329 -42.746201 -5.917671 -0.942400 -0.259300 0.211200 
13.181030 -46.321499 -8.930324 -0.974800 -0.209100 -0.077800 
14.173780 -45.790901 -5.089673 -0.760200 -0.410600 0.503400 
-11.762766 25.972292 -19.056047 -0.665800 0.347600 -0.660200 
14.316909 -11.509398 -2.364212 0.569400 0.563300 0.598700 
14.137506 -7.781296 -4.717762 0.729200 0.608800 0.312300 
4.469979 31.005001 -18.405195 0.399200 0.675000 -0.620500 
5.574481 29.094305 -19.958847 0.327600 0.521700 -0.787700 
-41.597763 30.230059 20.843763 -0.729400 0.670600 -0.134700 
-0.699835 -26.398699 -28.459864 -0.242000 -0.970200 0.000000 
-7.294555 16.683981 22.333599 -0.852200 -0.495900 -0.166700 
-23.356806 9.517829 -6.950149 -0.391300 -0.589800 -0.706400 
-22.628754 7.468379 -4.093399 -0.158800 -0.926800 -0.340300 
14.068783 -48.844799 -7.538224 -0.792900 -0.515200 0.325200 
16.285032 -49.825546 -5.897974 -0.684100 -0.410000 0.603200 
5.702934 34.120537 21.259306 0.136700 -0.481400 0.865700 
6.255632 35.296539 19.268654 0.818000 -0.564700 0.109000 
3.128078 33.670803 -16.409096 0.377200 0.885200 -0.272200 
3.547279 30.987352 -19.657745 0.430000 0.628100 -0.648400 
-1.415023 33.719448 -17.231544 -0.001900 0.881400 -0.472200 
31.210941 25.299402 22.154196 -0.658700 0.688200 0.304100 
-13.466819 30.939236 -6.357594 -0.673500 0.739200 0.010100 
-13.021520 30.595289 -9.084594 -0.762500 0.646900 -0.005700 
-42.094963 29.227457 22.973009 -0.827600 0.450000 0.335300 
23.466080 -48.062241 -11.542874 0.739100 -0.247000 -0.626700 
-6.075871 36.326790 -2.612243 -0.391300 0.915400 0.094100 
-8.374371 34.712788 -1.886843 -0.650600 0.737300 0.181900 
-5.448620 36.040638 2.059457 -0.217000 0.948000 0.232900 
-35.602268 34.535263 22.646162 0.771400 0.527800 -0.355300 
-18.063244 -11.724565 -9.238807 -0.443900 0.810900 -0.381200 
-16.012289 -13.915015 -12.964007 -0.317400 0.680900 -0.660000 
29.646143 21.448853 21.974796 -0.808800 -0.012700 0.587900 
28.380043 17.032354 19.249594 -0.768200 -0.289200 0.571200 
3.392143 20.250786 21.577553 0.764100 0.269000 0.586400 
38.414944 20.488661 21.704147 0.999800 0.015300 -0.005200 
-38.195366 34.152863 20.644661 -0.393500 0.909500 -0.133500 
-38.155609 22.679260 21.766157 0.638400 -0.564000 0.523700 
10.368332 27.420254 -17.255350 0.443600 0.458700 -0.769900 
-41.123859 21.837109 21.187059 -0.350300 -0.902400 0.250900 
-37.692307 20.526960 19.290056 0.017800 -0.438000 0.898800 
2.195539 25.664688 23.266451 0.083600 0.748700 0.657600 
-3.287988 -22.090252 -24.303762 -0.932700 0.222100 -0.284100 
16.821495 8.332556 -5.993106 0.851500 -0.474200 -0.223600 
19.034145 9.625206 -5.450407 0.500000 -0.675500 -0.541900 
18.639896 8.579405 -2.293457 0.258600 -0.944800 -0.201000 
-11.278254 4.704792 -19.326504 -0.572700 -0.351200 -0.740700 
-13.056954 6.010489 -17.395250 -0.715900 -0.186400 -0.672800 
-9.934854 5.733693 -20.394905 -0.489600 -0.260000 -0.832200 
13.403238 22.031199 7.335400 0.692600 0.593200 0.410300 
14.807089 22.860500 5.757600 0.588900 0.615600 0.523600 
13.267387 24.925850 3.503500 0.599000 0.423200 0.679800 
-20.855921 -44.607861 -16.045418 -0.738700 -0.015900 -0.673800 
-6.117510 25.049431 22.745903 -0.208600 0.684400 0.698600 
-6.357109 23.490631 23.263103 -0.556900 -0.201800 0.805700 
-10.538914 -56.622757 -12.317773 0.863200 -0.377900 0.334600 
-13.116062 -57.045563 -7.805572 0.887900 -0.293800 0.353900 
-13.006263 -57.505764 -8.814773 0.362700 -0.918600 0.156500 
-28.621058 13.441477 -3.825647 -0.589000 -0.048300 -0.806700 
-27.743359 15.544476 -4.481198 -0.768100 0.210300 -0.604800 
-23.256840 -17.396420 -8.116657 -0.919600 0.303700 -0.249000 
14.366384 -52.897392 -13.716025 -0.796100 0.473700 -0.376500 
13.576283 -54.295403 -11.542675 -0.955100 0.257700 0.146300 
14.895584 -51.477798 -8.966176 -0.948000 -0.044100 0.315100 
-36.615112 28.275412 21.217909 0.865400 -0.281100 0.414600 
12.710447 9.049549 8.580647 0.708800 -0.212100 0.672700 
9.518351 6.535895 10.136694 0.485900 -0.296700 0.822100 
12.212299 5.645649 7.302544 0.638400 -0.520400 0.567100 
-42.364159 22.396557 19.033960 -0.777100 -0.629300 -0.007900 
-40.630657 20.899908 17.899757 -0.723100 -0.553100 0.413800 
-4.798954 15.350381 21.661247 -0.865600 -0.491500 0.095600 
31.657797 14.675555 23.570442 -0.526900 -0.369400 0.765400 
-16.693863 -57.193314 -8.180872 -0.018700 -0.999100 -0.036300 
0.535610 -17.634598 -21.275063 0.483100 0.600900 -0.636700 
0.984308 -14.817851 -19.353411 0.429200 0.317600 -0.845500 
-36.909958 25.739363 20.819258 0.868500 -0.209700 0.449000 
8.484017 -25.834297 -9.683364 -0.523800 -0.814100 -0.251000 
-43.556660 24.241405 21.214809 -0.955200 -0.295700 0.011600 
-22.846674 -41.204865 -13.719864 -0.902900 -0.065600 -0.424800 
-22.898472 -44.356571 -11.673018 -0.975100 -0.201900 0.091700 
-22.742624 -43.018974 -10.039016 -0.916100 -0.306200 0.258900 
5.669129 35.768047 -2.938045 0.484500 0.832600 0.268200 
-15.695515 22.948685 -16.037445 -0.848800 0.323400 -0.418300 
37.958645 16.319210 21.790743 0.714800 -0.467200 0.520300 
33.967247 13.527206 21.662693 0.233800 -0.811400 0.535700 
2.478714 -24.116549 -27.901213 0.996200 -0.082000 -0.027600 
-3.552310 25.138733 21.001852 -0.084000 0.563400 0.821900 
-1.160341 -15.917052 -20.303610 -0.160400 0.546300 -0.822100 
-24.431536 -21.784069 -6.321308 -0.966900 0.105800 -0.232000 
-24.035784 -23.108870 -7.112110 -0.949700 0.097000 -0.297700 
-24.779133 -24.457872 -5.101010 -0.989300 0.007300 -0.145500 
33.439289 26.543556 21.427896 -0.283600 0.930600 -0.231200 
-39.858219 32.861206 19.682112 -0.752500 0.654400 -0.073900 
-8.677072 34.302536 -9.319543 -0.462500 0.880600 -0.103000 
-8.953171 34.902836 -4.937243 -0.372600 0.928000 -0.000200 
-7.220820 35.238689 -2.525992 -0.590000 0.782400 -0.199300 
-15.355229 -32.691013 -12.204064 0.308700 0.468500 -0.827800 
-15.481481 -29.642012 -12.153063 0.177500 -0.175800 -0.968300 
-13.618578 -32.946564 -11.132415 0.684300 0.391400 -0.615200 
-23.920662 -57.557919 -5.015172 -0.036600 -0.847000 0.530300 
-24.054564 -58.002125 -7.050621 -0.089800 -0.993800 -0.064500 
-21.915812 -57.755424 -3.955020 -0.107100 -0.993700 0.033000 
-20.441908 12.351083 -9.157149 -0.485200 -0.266300 -0.832900 
0.558905 -10.102752 -18.989611 0.059700 -0.232600 -0.970700 
5.270407 -10.511898 -17.911110 0.371500 -0.266800 -0.889200 
-7.380956 19.271130 19.358604 -0.935100 -0.260200 0.240400 
11.295899 0.622853 -11.467008 0.968600 0.138500 -0.206400 
11.004899 2.711303 -13.831609 0.803000 -0.421700 -0.421000 
29.611540 23.306454 21.481895 -0.634100 -0.429300 0.643100 
4.599989 26.221090 19.496502 0.808900 0.163900 0.564600 
1.007989 26.074085 21.329052 -0.015600 0.591400 0.806200 
7.083904 -8.179697 -17.606213 0.572400 -0.237600 -0.784800 
8.269705 -9.528545 -16.330612 0.420400 0.094400 -0.902400 
2.046962 -21.672998 -24.539064 0.877200 0.429200 -0.215000 
-14.734253 3.838738 -15.902452 -0.716700 -0.480900 -0.505000 
-34.044170 36.813614 21.207960 0.838300 0.537900 -0.089200 
-34.990517 37.258560 21.107811 -0.122600 0.987200 -0.102000 
-34.385216 36.700462 23.316961 0.228400 0.284800 0.931000 
12.760254 -6.383696 -12.608060 0.822500 0.301000 -0.482400 
13.198304 -5.560098 -9.180510 0.913100 0.406700 -0.028200 
13.108405 -6.576796 -8.285460 0.903300 0.427300 0.036700 
-14.306621 40.544228 20.009706 -0.160600 0.162300 0.973500 
-12.241570 38.016876 20.103308 -0.511400 -0.266000 0.817100 
-10.671320 38.404526 19.436008 0.525300 0.533600 0.662700 
-14.276728 -34.785858 -14.160265 0.438900 0.605800 -0.663600 
3.201642 21.673138 21.961653 0.692600 -0.141600 0.707200 
14.806933 27.270956 -6.156950 0.762400 0.614900 0.201400 
14.879184 25.913502 -3.321600 0.581900 0.795800 0.167700 
14.953235 26.384253 -5.639600 0.844300 0.473000 0.251700 
8.827880 32.813694 -11.486547 0.611000 0.714800 -0.340300 
6.163379 33.662354 -13.464097 0.445100 0.795900 -0.410400 
-23.704573 -38.268723 -5.695465 -0.971200 -0.233200 0.049500 
-22.653774 -37.472672 -2.955914 -0.756900 -0.232600 0.610700 
27.760641 23.852402 21.453197 -0.675600 -0.045000 0.735800 
-22.483421 -41.619923 -5.589465 -0.834800 -0.433300 0.339600 
-22.409973 -40.218372 -4.218565 -0.734700 -0.401400 0.546800 
-35.308212 31.559511 20.591711 0.925400 -0.054200 0.375000 
-34.172417 34.015961 19.796911 0.882400 -0.262600 0.390400 
-36.078369 36.305813 21.120861 -0.850600 0.413000 0.325400 
29.492296 12.077907 18.578793 -0.418800 -0.742800 0.522400 
29.698147 13.383606 20.163191 -0.833500 -0.081200 0.546500 
1.954698 12.863786 20.747648 0.722500 -0.690800 0.026500 
7.394053 -4.332596 -18.472958 0.597300 -0.023800 -0.801600 
9.375253 -5.764495 -16.227659 0.754800 -0.137600 -0.641300 
5.588503 -6.204898 -19.318211 0.397500 -0.168900 -0.901900 
0.831965 -25.941448 -28.043013 0.523500 -0.851800 -0.020300 
1.918328 33.803501 -15.528244 0.163400 0.917600 -0.362200 
-4.070139 -18.058506 -16.383514 -0.856900 -0.403500 -0.320700 
-3.286090 -16.838402 -19.411110 -0.818200 0.233500 -0.525300 
-3.666588 -19.694450 -18.635464 -0.955500 -0.252800 0.151900 
-20.354620 -48.002411 -16.221167 -0.716700 -0.379300 -0.585200 
-1.091539 -20.029099 -24.377111 -0.040900 0.828700 -0.558200 
7.917301 -1.164247 -17.482058 0.607200 -0.234900 -0.759000 
-20.601175 -39.783909 -16.291664 -0.560500 0.085100 -0.823800 
-18.797924 -37.618462 -16.596714 -0.147500 0.334100 -0.930900 
7.840907 -11.929796 -17.253962 0.251200 0.033000 -0.967300 
-2.679472 34.094101 -16.148544 -0.137400 0.867400 -0.478200 
12.752678 41.856743 20.232708 0.528700 0.848500 -0.022400 
3.130811 -16.906403 -15.734213 0.564600 -0.746600 -0.351800 
-1.644735 -26.474249 -26.313213 -0.457600 -0.888200 0.039900 
-7.337558 21.711782 19.379753 -0.875700 -0.002900 0.482800 
-5.264072 34.481396 -13.888643 -0.353000 0.804500 -0.477700 
-36.375011 21.902012 19.097157 0.694700 -0.044600 0.717900 
-35.247356 24.057516 17.534107 0.787800 -0.016600 0.615600 
-13.147912 23.418633 8.520204 -0.793600 0.462300 0.395400 
-16.061409 20.673531 6.501104 -0.819200 0.326100 0.471800 
-14.772559 19.668980 8.473203 -0.591800 0.069800 0.803000 
-35.357513 28.072363 19.252909 0.846600 -0.221500 0.483800 
-35.724766 33.475761 20.859562 0.909400 0.091200 0.405700 
28.288189 20.901255 6.951596 0.175100 0.892100 -0.416500 
26.350990 21.732504 6.197947 0.129700 0.989800 0.058600 
25.840340 21.197407 8.377098 -0.297300 0.953100 0.055800 
3.730445 16.876987 19.865349 0.950200 -0.285500 0.124500 
16.687820 -31.885742 -9.464319 -0.556500 0.459600 -0.692200 
19.155321 -31.347092 -9.914268 -0.101500 0.546400 -0.831400 
18.568872 -32.275696 -11.369720 -0.242400 0.684700 -0.687300 
-15.810872 -42.059269 -4.113517 0.131600 -0.532000 0.836500 
-19.065319 -43.351070 -3.678167 -0.127800 -0.624500 0.770400 
-18.164619 -45.340168 -5.783067 0.022700 -0.635600 0.771700 
-36.400105 17.625513 19.159906 -0.210700 -0.377800 0.901600 
-34.442005 17.513462 19.195753 0.396300 -0.288400 0.871600 
-34.738655 19.333214 19.528257 0.556100 0.316700 0.768400 
1.195511 -20.549349 -24.276663 0.508000 0.740000 -0.440700 
4.581790 24.505939 19.955101 0.847500 0.100900 0.521000 
29.316137 26.052805 20.065145 -0.407900 0.861300 0.302900 
1.102938 27.588234 21.131052 0.131100 0.443500 0.886600 
-2.289711 26.553633 21.226103 -0.127400 0.155800 0.979500 
-40.835510 30.333406 19.661310 -0.840500 0.532200 -0.102000 
7.873479 32.128952 -14.462997 0.657200 0.682400 -0.319800 
5.552730 32.295155 -16.894444 0.278000 0.772000 -0.571600 
1.374365 -26.291300 -26.686214 0.566100 -0.823800 0.027800 
-7.428734 -23.437607 -8.939113 0.854200 -0.482000 -0.194600 
-9.933183 -24.726110 -11.597713 0.651400 -0.488800 -0.580300 
-8.934685 -22.962860 -11.720912 0.720100 -0.421200 -0.551300 
25.384684 -49.928242 -7.425926 0.822000 0.560700 0.099100 
26.730934 -51.218842 -5.685426 0.420700 0.906400 0.038600 
14.672759 -12.699244 -14.456263 0.379000 0.467300 -0.798700 
-6.512323 35.604290 -10.976193 -0.268700 0.956500 -0.113700 
-19.576401 7.356133 -3.148901 -0.197000 -0.965700 -0.169200 
12.457377 -41.774151 -7.985322 -0.971600 -0.047100 -0.231900 
11.868626 -38.540649 -4.893270 -0.994700 0.035400 0.096900 
-7.262805 13.628036 8.678499 -0.219400 -0.175400 0.959700 
-5.008152 9.949286 10.110549 0.270700 0.390800 0.879800 
-1.784702 9.089937 8.887898 0.273000 0.092800 0.957500 
12.376590 13.873158 -20.625753 0.722400 -0.042900 -0.690100 
16.595383 25.516907 -7.074701 0.794200 0.607400 0.014900 
-4.126512 27.691032 20.472502 -0.201900 0.533500 0.821300 
-21.935522 -43.713074 -9.087915 -0.929900 -0.313400 0.192400 
-3.595587 -23.630602 -23.430513 -0.932400 -0.356900 0.057300 
-15.069666 27.045332 -1.728345 -0.585300 0.803600 0.107400 
-15.499215 24.985231 2.029905 -0.709500 0.137600 0.691200 
-1.452402 11.791435 20.006199 0.053700 -0.902400 -0.427500 
-12.936521 31.332489 -10.862545 -0.647800 0.761700 -0.007100 
-14.804767 28.720087 -10.249945 -0.770000 0.614100 -0.173000 
-5.472653 14.479383 19.990648 -0.892800 -0.450100 0.011700 
39.442047 17.445009 18.733892 0.906600 -0.323200 0.271400 
13.778584 23.785955 -16.185150 0.812500 0.505000 -0.291300 
15.160437 19.311956 -17.013800 0.847800 0.234100 -0.475800 
-29.594112 24.406570 9.298306 0.718600 0.631200 -0.291800 
-28.353008 21.430120 6.903755 0.805000 0.497700 -0.322800 
27.962439 25.460903 18.511349 -0.613000 0.785300 0.086700 
-15.337255 7.087237 -15.886701 -0.785200 -0.421500 -0.453500 
-14.389096 -3.002414 -7.397403 -0.986000 -0.056600 0.156800 
-0.475198 -5.094351 -20.061506 0.045900 -0.300900 -0.952500 
3.167399 0.400751 -21.147705 0.339800 -0.132300 -0.931100 
3.664750 -0.983999 -19.872955 0.410000 -0.323900 -0.852600 
-13.082150 -0.886213 -5.041554 -0.933600 -0.256300 0.250300 
-12.500946 -3.904863 -5.161106 -0.890700 -0.020200 0.454000 
6.502080 40.054138 19.400805 -0.644200 0.690300 0.329300 
24.647980 -48.113693 -9.501676 0.976300 -0.011600 -0.216200 
24.021631 -46.482887 -12.292974 0.736400 -0.233000 -0.635100 
25.292686 -57.612438 -10.194679 0.307300 -0.831600 -0.462600 
23.482437 -57.451488 -11.966529 0.436800 -0.774500 -0.457600 
25.963184 -53.618046 -10.078876 0.662700 0.157800 -0.732100 
-32.607758 15.820366 16.702503 0.856100 0.303600 0.418200 
-30.481806 13.929667 14.799704 0.622900 0.114800 0.773800 
-31.141354 14.981219 13.591655 0.536200 0.579200 0.613900 
37.879646 14.572861 19.137592 0.738500 -0.651800 0.172400 
36.329151 13.806110 20.130892 0.480300 -0.785400 0.390500 
-2.583772 37.292793 -3.303293 0.023400 0.977800 0.208300 
-1.402622 36.897842 -2.724393 -0.083500 0.996500 0.006600 
-2.782773 37.146694 -7.809893 0.040300 0.983400 -0.176900 
-7.509671 32.942596 -15.537642 -0.278800 0.918500 -0.280200 
-6.652421 33.144295 -14.909043 -0.289700 0.848600 -0.442600 
2.481663 -23.769249 -24.730463 0.959000 -0.268800 0.089900 
3.686438 28.497038 19.891403 0.365800 0.413200 0.833900 
14.759773 -35.121399 -10.986720 -0.641500 0.407400 -0.650000 
-11.836563 -57.662308 -18.261673 0.199900 -0.954900 -0.219300 
-9.418766 33.144726 20.165707 -0.533500 -0.487200 0.691300 
-7.995866 33.758282 19.788057 0.647500 0.060000 0.759700 
-10.497817 35.951427 20.646658 -0.038300 0.028000 0.998900 
-37.388664 34.143063 19.121210 -0.721900 0.691900 0.007900 
-38.327316 32.988762 18.452662 -0.623200 0.728000 -0.285600 
-8.535316 33.328232 18.108458 -0.939600 -0.334900 -0.070800 
14.071875 -38.110050 -11.525321 -0.730200 0.150100 -0.666500 
12.948724 -37.622749 -9.275519 -0.922200 0.143300 -0.359200 
-7.775814 29.528679 18.264406 0.042200 0.027700 0.998700 
9.490830 38.304943 18.839502 0.412300 -0.739200 0.532500 
7.901159 -13.738848 -16.499311 0.280100 -0.211200 -0.936400 
-15.368493 -11.126863 -10.477158 -0.750900 0.493200 -0.439100 
-6.779806 17.091681 18.409100 -0.881400 -0.446500 -0.154300 
40.263493 19.447815 17.560446 0.973000 0.088300 0.213100 
38.482891 23.261909 19.639446 0.875000 0.425100 0.231700 
-6.734942 -13.146256 -16.601858 -0.278800 -0.020300 -0.960100 
34.458439 26.864958 19.724747 0.172900 0.981100 0.086700 
-3.355964 28.918083 18.558552 -0.186900 0.566200 0.802700 
-28.967154 11.719920 9.813503 0.615000 -0.742600 0.265000 
-30.226204 10.632769 11.347053 0.391700 -0.880900 0.265500 
-31.451204 10.514869 9.081602 0.121500 -0.992600 0.000000 
3.080985 31.586536 17.775906 -0.451300 0.190600 0.871700 
4.866585 30.262440 18.154306 0.689700 0.174200 0.702800 
-11.960153 12.192281 9.062500 -0.351900 0.235800 0.905800 
-13.455206 15.457132 6.439201 -0.323400 -0.159300 0.932700 
-15.627157 14.832181 6.110900 -0.472300 -0.114800 0.873900 
1.280446 13.972988 18.234097 0.629500 -0.739800 -0.237500 
30.794733 -54.187637 -7.281030 0.664700 0.371900 -0.647900 
30.171934 -52.860493 -6.514579 0.665500 0.652800 -0.361900 
29.792736 -52.204185 -4.897529 0.561700 0.819500 0.113200 
-15.983563 -57.709961 -17.799423 -0.408400 -0.838400 -0.361000 
24.416563 -20.171040 -6.678716 0.948500 0.230200 -0.217600 
23.825815 -18.239042 -4.457465 0.884800 0.465600 0.017300 
24.631815 -19.737442 -2.440966 0.908100 0.361000 0.211900 
-42.879108 25.809757 18.029860 -0.931900 0.143000 -0.333200 
-0.656085 -26.011501 -24.061665 -0.018200 -0.976700 0.214000 
0.830536 29.390337 18.877005 -0.009700 0.584600 0.811200 
-33.626312 31.600813 18.253311 0.959500 -0.073000 0.272100 
-11.503282 -27.209711 -11.223763 0.601300 -0.499800 -0.623400 
-10.566380 -28.662361 -8.133813 0.788900 -0.604200 -0.111800 
-12.197631 -30.056713 -9.428864 0.810300 -0.338200 -0.478500 
8.283028 41.376789 17.393408 -0.272700 0.926500 -0.259400 
34.739296 12.158608 17.380543 0.397300 -0.898300 0.187900 
4.834535 31.215645 16.223507 0.826300 -0.031500 0.562400 
-2.970987 -19.572906 -15.784760 -0.474600 -0.812700 0.337900 
27.370491 21.602201 17.756348 -0.641600 -0.438200 0.629500 
-20.627411 15.217134 -9.236696 -0.483200 0.064300 -0.873100 
8.388781 31.777451 -13.742297 0.581300 0.707300 -0.402200 
18.722765 -24.195591 -12.755667 0.414000 -0.358200 -0.836800 
21.444918 -25.878990 -10.579417 0.576600 -0.362000 -0.732400 
18.898817 -27.178345 -11.383018 0.297800 -0.517900 -0.801900 
-4.791736 -19.909256 -11.771212 0.387100 -0.854500 -0.346400 
-6.266086 -21.030006 -9.111613 0.626500 -0.754300 -0.196000 
-7.879286 -20.777010 -11.929313 0.504000 -0.683700 -0.527700 
-12.747764 -57.135357 -15.017874 -0.072600 -0.997000 0.025900 
30.308247 10.927108 16.654743 -0.070200 -0.957500 0.279900 
9.061717 -24.962502 -5.495465 -0.655000 -0.522100 0.546200 
10.223719 -27.925446 -6.070318 -0.663800 -0.635200 0.394600 
13.083071 -29.084652 -5.225668 -0.562600 -0.732300 0.383600 
-13.459133 -25.750315 -13.393712 0.242700 -0.398600 -0.884400 
24.921640 21.769804 16.702797 -0.810300 0.018700 0.585700 
37.964691 24.475163 16.659296 0.694900 0.700000 0.164500 
15.701733 -50.456886 -12.856677 -0.787900 0.181200 -0.588500 
16.510132 -51.393490 -14.077175 -0.346700 0.458600 -0.818200 
5.697087 27.724838 18.136702 0.812300 0.075400 0.578400 
-7.096821 34.282299 -13.888893 -0.358400 0.728700 -0.583500 
-41.788914 27.444014 16.770409 -0.899300 0.284000 -0.332300 
16.261497 6.036706 -5.769857 0.791200 -0.610500 0.035700 
-34.159863 28.798618 17.357407 0.918600 -0.145100 0.367400 
14.290669 -30.448393 -6.904418 -0.720000 -0.653600 -0.233200 
14.027020 -29.513948 -3.340918 -0.799100 -0.507600 0.322100 
3.158383 34.812637 18.260305 -0.876900 0.201500 0.436400 
-0.868412 15.441649 -24.973202 -0.073700 0.084400 -0.993700 
3.742388 16.728052 -24.041103 0.193400 0.019000 -0.980900 
4.978388 15.506752 -24.381851 0.306800 0.167100 -0.937000 
-39.043358 17.045509 17.721704 -0.663100 -0.530300 0.528200 
26.124342 18.966705 15.571795 -0.469800 -0.168500 0.866500 
-1.127534 -25.865351 -22.637514 -0.235700 -0.913600 0.331200 
-1.967586 -23.719402 -20.651363 -0.433300 -0.846600 0.308800 
-7.456161 24.531080 18.172754 -0.932800 -0.034600 0.358600 
5.058038 26.564138 18.229502 0.845300 -0.115900 0.521500 
-2.219248 3.445238 8.192146 0.329000 -0.464900 0.821900 
-0.037748 3.904140 8.115596 -0.216200 -0.444900 0.869000 
-2.036801 8.040538 9.628946 0.438100 0.180100 0.880700 
32.331589 26.806259 17.312346 -0.055100 0.992600 -0.107800 
-5.785114 29.300385 17.524105 -0.022300 0.536100 0.843800 
-18.229164 24.806885 -6.792696 -0.820400 0.571600 -0.012100 
-16.162218 26.756037 -7.075345 -0.983800 -0.007500 0.179000 
-2.304763 30.136381 18.771606 -0.138100 0.485400 0.863300 
-6.443714 30.928535 17.112757 0.563200 0.356200 0.745600 
-15.455172 41.195225 17.051161 -0.443400 0.665200 -0.600800 
-12.382919 30.490088 -14.640944 -0.454300 0.714400 -0.532200 
14.627322 -32.663799 -5.629018 -0.937200 0.347600 -0.028100 
-37.658966 34.000114 17.152061 -0.636500 0.740200 -0.216700 
-11.527069 37.372627 17.439857 -0.667800 -0.637300 0.384500 
20.997093 12.913908 -6.034155 0.402100 -0.214900 -0.890000 
22.963043 13.327310 -5.429106 0.484700 -0.122300 -0.866100 
21.200247 10.128407 -4.541356 0.339800 -0.658700 -0.671300 
-13.783094 -7.521062 -12.364706 -0.788700 0.404300 -0.463000 
-7.845083 -23.663710 -5.897663 0.823000 -0.547600 0.151000 
-5.595036 -20.657808 -6.508011 0.517300 -0.849800 0.100900 
-9.295232 -23.428812 -1.427562 0.778400 -0.468500 0.417700 
11.433478 40.252842 17.586254 0.639200 0.369700 -0.674300 
-0.219554 13.428337 15.272848 0.323200 -0.935500 -0.142800 
-4.432095 -9.311804 -19.217960 -0.164500 -0.388500 -0.906600 
-5.540246 -7.119503 -19.594210 -0.246500 -0.248200 -0.936800 
-1.947096 -8.366052 -19.679960 -0.037200 -0.229200 -0.972700 
-9.930062 26.263084 13.615403 -0.962600 0.161500 0.217400 
-9.819960 24.108683 16.006804 -0.903900 0.169800 0.392500 
-8.390362 26.679634 16.360704 -0.847000 -0.068400 0.527200 
-39.834908 19.487162 18.209608 -0.532400 -0.260800 0.805300 
-9.278057 20.020727 17.656454 -0.825900 -0.482500 0.291600 
-33.430557 16.890417 16.115555 0.866100 0.381900 0.322500 
26.066936 -57.407692 -8.011829 -0.079500 -0.992200 0.095600 
28.601089 -57.107189 -5.237679 -0.192400 -0.980200 0.045700 
-41.122013 30.102112 17.428713 -0.901500 0.396100 -0.174300 
-35.391216 33.925415 15.961661 0.271600 0.720300 -0.638200 
12.685032 26.595804 -14.928548 0.720100 0.443400 -0.533700 
24.256580 -43.430691 -3.961874 0.713900 -0.337200 0.613700 
25.017031 -44.461090 -4.831174 0.898200 -0.142300 0.415900 
25.227226 -41.782143 -6.876825 0.973300 -0.204700 0.103800 
0.438090 12.610851 -24.705103 -0.003600 -0.211000 -0.977500 
-16.667671 41.266525 18.754862 -0.863600 0.326200 0.384400 
-10.553667 -52.379154 -13.944672 0.919100 0.378000 0.111200 
-2.559114 18.034698 -25.109098 0.152100 -0.064700 -0.986200 
-1.662965 20.597849 -24.691198 -0.077400 0.204600 -0.975800 
-1.495113 16.500248 -24.220404 -0.167600 0.098300 -0.980900 
-12.254774 -39.978367 -3.751866 0.610100 -0.194000 0.768200 
-9.522974 -40.965115 -7.835018 0.946000 -0.155400 0.284500 
6.209443 19.621889 19.334900 0.773700 -0.472500 0.421900 
7.502239 22.870096 16.976149 0.900100 0.041000 0.433800 
-33.817661 22.583818 16.396158 0.750000 0.077800 0.656800 
17.483833 -48.964344 -4.430525 -0.375700 -0.425100 0.823500 
17.674385 -51.450146 -5.195677 -0.624400 0.013300 0.780900 
19.582335 -50.383701 -4.806175 -0.203900 0.123100 0.971200 
30.167988 26.150858 15.807398 -0.298200 0.932800 -0.202200 
6.278486 29.000244 15.821853 0.919900 0.191200 0.342300 
-11.464819 -48.793705 -15.716919 0.916500 -0.123900 -0.380200 
16.049160 -12.520798 -2.027162 0.309900 0.771000 0.556400 
18.019558 -10.974794 -7.126413 0.453900 0.881000 0.132800 
15.909558 -10.268645 -5.999212 0.669000 0.681400 0.296800 
0.460735 31.418991 16.498606 -0.190100 0.694100 0.694300 
1.794984 32.893784 16.108006 -0.580500 0.540500 0.608900 
3.662982 37.021389 15.895205 -0.798200 0.592700 -0.107400 
10.412183 36.351242 17.271904 0.089600 -0.528400 0.844300 
12.564330 38.517292 18.691654 0.851600 -0.512600 0.109500 
18.382330 -45.350845 -2.216073 -0.050400 -0.408300 0.911400 
38.391644 15.525312 16.066143 0.688300 -0.704700 0.172200 
27.568895 13.153905 16.774694 -0.611800 -0.001300 0.791000 
-38.701405 15.914612 16.406454 -0.530100 -0.655500 0.537800 
-41.345257 18.046713 15.961807 -0.785900 -0.442600 0.431700 
14.687037 -57.845642 -12.040028 -0.340100 -0.936700 0.082600 
15.799788 -57.826042 -9.564128 -0.303700 -0.933600 0.189900 
13.071535 -56.272892 -11.888726 -0.958000 -0.225600 0.177100 
-12.125802 2.721288 -14.963604 -0.650600 -0.605100 -0.458900 
12.258052 -5.049695 -11.353359 0.874700 0.383000 -0.296800 
-41.888611 22.645163 15.648509 -0.999200 -0.009200 -0.037800 
-11.159973 -43.813557 -15.444217 0.837200 0.110300 -0.535600 
-4.055701 0.152195 -20.203056 0.276700 0.214500 -0.936700 
-5.930502 1.470246 -20.957603 -0.029400 0.561500 -0.826900 
-5.192852 2.070296 -19.670856 -0.159800 0.194600 -0.967700 
-33.875366 32.643513 16.359211 0.859700 0.320400 -0.397700 
-0.349266 21.796001 -24.498997 0.023500 0.258900 -0.965600 
4.804386 20.640703 -23.988398 0.422400 0.194300 -0.885300 
-0.289414 18.120451 -25.031998 -0.106200 -0.011100 -0.994300 
3.827179 33.325352 -15.333846 0.348100 0.814600 -0.463900 
-10.514362 -57.523109 -16.080774 0.493000 -0.869600 -0.026300 
6.975488 25.803741 16.372850 0.836800 0.205800 0.507400 
1.851546 14.708589 16.116247 0.725600 -0.630000 -0.276800 
-35.193802 13.461214 15.988153 -0.171800 -0.722000 0.670200 
-18.034313 -57.175713 -15.963722 -0.644400 -0.420700 -0.638500 
-19.350166 -52.888458 -15.482820 -0.785600 0.070900 -0.614600 
-6.523007 18.569384 16.474504 -0.793900 -0.588200 -0.153700 
-7.518851 0.131993 -20.422255 -0.525200 -0.115400 -0.843100 
-6.798400 -1.189705 -19.678154 -0.421500 -0.350800 -0.836200 
-10.052150 -1.602607 -17.397354 -0.708200 -0.160100 -0.687600 
39.125889 22.034115 17.019245 0.920500 0.344000 0.185200 
-6.747168 35.551281 16.618908 0.878400 0.434300 0.199100 
30.701738 20.917208 7.055297 0.242300 0.556700 -0.794500 
29.676390 18.779911 4.644395 0.845000 0.477500 -0.240700 
17.630989 20.570704 -3.354353 0.799600 0.581500 -0.149500 
17.469585 23.922955 -2.037351 0.916800 0.369900 0.150400 
16.993839 21.571705 -0.495400 0.786200 0.613600 0.073400 
11.204482 35.532494 16.731153 0.871100 -0.482800 0.089700 
10.236582 37.016495 15.814503 0.673700 0.071200 -0.735500 
-18.465315 23.309036 -9.560596 -0.891200 0.324500 -0.316900 
-19.404465 20.322182 -8.804746 -0.828300 0.416000 -0.375300 
-9.769751 0.244492 -18.583303 -0.701100 0.177200 -0.690700 
-14.101611 16.811340 -19.481050 -0.674100 0.035700 -0.737700 
-24.721754 7.538477 -1.826800 -0.262200 -0.939400 -0.220900 
-26.948952 10.161926 -4.145949 -0.696900 -0.537200 -0.475100 
4.883487 17.690655 -24.236549 0.455000 -0.356000 -0.816200 
26.629997 12.048304 15.701643 -0.534600 -0.747200 0.394700 
40.403946 17.723566 15.513793 0.968100 -0.248800 -0.028900 
-2.860611 14.582598 -25.076803 -0.036300 -0.005900 -0.999300 
-3.038812 16.475298 -24.579252 0.009500 -0.041800 -0.999100 
0.898114 -23.029051 -19.524115 0.494500 -0.706300 0.506500 
24.509592 21.958754 14.910948 -0.901000 0.421200 0.103200 
-7.068062 18.112598 -24.228949 -0.368300 -0.003800 -0.929700 
-15.427362 -57.731068 -3.171121 0.134300 -0.987300 0.084900 
16.686697 10.328551 5.726295 -0.078200 -0.730800 0.678000 
22.298197 10.636653 9.850444 -0.400900 -0.506100 0.763600 
22.720695 11.771953 10.121794 -0.435500 -0.275700 0.856900 
6.243484 33.532539 16.129953 0.484500 -0.434600 0.759100 
-22.183990 -15.524920 -8.216308 -0.848800 0.504500 -0.158200 
-11.591078 -34.857967 -11.125015 0.798500 0.534100 -0.277700 
-12.557678 -33.505413 -9.429516 0.931400 0.326000 -0.161600 
2.255783 34.437286 14.147706 -0.608400 0.790700 0.067500 
15.603488 18.542858 -16.216351 0.823400 0.087500 -0.560600 
-7.936564 30.513134 15.668405 -0.868600 0.013800 0.495200 
-13.995770 38.099327 16.437008 -0.304500 -0.593300 0.745100 
5.868629 39.100739 15.802506 -0.508500 0.745400 -0.430900 
9.060129 40.604641 16.182354 0.171400 0.669900 -0.722300 
27.489744 14.785203 16.113094 -0.514500 0.029500 0.857000 
-5.465255 16.632784 14.635601 -0.824200 -0.565700 0.024300 
-13.374476 -37.294907 -15.320616 0.516400 0.422800 -0.744700 
-0.416838 -17.259203 -8.255611 -0.016600 -0.997600 -0.067200 
-0.408938 -18.879503 -13.842262 0.136200 -0.935400 0.326400 
2.347111 -17.866302 -12.313711 -0.164500 -0.939600 -0.300100 
1.547007 -12.304151 -18.506809 0.155100 -0.172500 -0.972700 
-39.179363 30.897913 14.485410 -0.666800 0.489300 -0.562000 
23.004215 -23.510738 -10.203467 0.766200 -0.177100 -0.617700 
24.549465 -24.092588 -7.592068 0.896300 -0.116900 -0.427700 
-15.656219 37.942776 16.071407 -0.938700 -0.344600 -0.005700 
-2.371754 13.675486 14.721348 -0.334900 -0.927600 -0.165600 
22.961611 -16.621538 -7.655866 0.898900 0.425700 -0.103100 
-4.060854 14.358785 15.486698 -0.736800 -0.652200 -0.178200 
10.325402 0.339150 -0.163757 0.628700 -0.701000 0.336700 
10.521353 -2.032000 -3.263757 0.763300 -0.283800 0.580400 
-31.596704 12.990917 15.185903 0.336300 -0.617600 0.710900 
-11.985499 2.619683 6.100048 -0.681000 -0.521200 0.514400 
-13.453049 4.127432 5.479999 -0.712900 -0.540100 0.447200 
26.134243 16.828156 15.588646 -0.428800 -0.004900 0.903300 
39.991539 21.001413 13.766245 0.935700 0.206200 -0.286200 
25.603689 23.409506 13.364549 -0.677400 0.697000 -0.235100 
-41.686310 25.144863 15.920860 -0.856200 0.103100 -0.506100 
-21.028419 -49.174774 -11.624218 -0.905200 -0.357100 0.230400 
-20.643719 -51.157810 -12.260419 -0.965600 0.179800 -0.187500 
-18.943768 -49.839817 -8.926870 -0.675600 0.134900 0.724800 
35.631542 25.986210 15.815646 0.272600 0.937400 -0.216800 
21.738768 -30.806841 -9.374519 0.336600 0.523400 -0.782800 
-7.505811 15.092546 -24.116850 -0.363600 0.157000 -0.918200 
-27.838259 17.683575 -2.959495 -0.549400 0.583300 -0.598300 
5.396092 9.039104 -23.361052 0.300500 -0.310700 -0.901700 
-19.056717 -50.972820 -7.766919 -0.397300 0.836300 0.377800 
-17.773165 -51.491272 -5.326071 -0.022700 0.936400 0.350200 
-37.233215 33.775013 15.726711 -0.299900 0.812500 -0.500000 
-7.387400 -2.918156 -19.757755 -0.368200 0.048700 -0.928400 
-7.716492 -14.679857 -16.882357 -0.086500 -0.128500 -0.987900 
-5.506989 -17.254908 -15.278161 -0.160700 -0.644900 -0.747200 
34.881897 12.024211 14.046291 0.569000 -0.818300 -0.081300 
-7.230722 36.064491 -5.901593 -0.600100 0.799900 0.003700 
-9.228533 -25.539560 -7.103063 0.854200 -0.485500 0.186000 
39.356495 15.487861 15.203293 0.691700 -0.694200 0.199000 
39.496441 23.357063 15.991945 0.877000 0.429100 0.215900 
-12.855319 37.785126 14.103958 -0.295000 0.348600 -0.889600 
-14.103418 35.447029 14.518457 -0.775200 -0.178600 -0.606000 
23.742447 10.207609 -3.289906 0.570500 -0.589200 -0.572100 
32.057388 26.012459 14.490697 -0.005800 0.927400 -0.374000 
-9.293913 27.870434 15.950655 -0.895300 -0.130100 0.426000 
8.336436 26.159595 13.359251 0.921800 0.298900 0.246900 
-33.829861 30.178818 15.853160 0.977900 0.101100 -0.182800 
-5.952916 32.430180 14.911857 0.626100 0.679500 0.382500 
-13.416051 3.286638 -13.982202 -0.541100 -0.804500 -0.244900 
-17.061302 4.252286 -10.377201 -0.798400 -0.590600 -0.117200 
-16.346203 3.965085 -13.314351 -0.806000 -0.509700 -0.300800 
-21.048069 -47.367474 -9.480568 -0.822200 -0.394400 0.410300 
6.197010 -15.504148 -16.028212 0.105800 -0.571200 -0.813900 
-10.263070 38.858078 14.816860 0.366100 0.727100 -0.580700 
8.637931 33.224445 -3.291198 0.786700 0.507400 0.351600 
10.328880 32.648151 -7.045198 0.834900 0.542600 -0.091800 
2.596095 16.490290 15.242000 0.829600 -0.558200 -0.012500 
-11.489292 -12.957458 -15.889758 -0.407700 0.058400 -0.911200 
-10.805941 -16.511011 -15.835059 -0.358100 -0.282200 -0.890000 
-9.868108 20.927732 15.032804 -0.765100 -0.625200 -0.154000 
-7.965659 20.884583 14.058803 -0.673800 -0.716300 -0.181100 
-35.376953 12.241917 14.297954 -0.293400 -0.822000 0.488100 
-3.074466 32.188683 15.993805 -0.157000 0.609200 0.777300 
-4.284165 30.984238 16.074257 -0.037400 0.757100 0.652200 
9.424284 32.419991 15.651453 0.817300 -0.540700 0.198800 
25.996584 -51.455395 -2.146926 0.208000 0.883200 0.420400 
22.299784 -50.222488 -4.510226 0.219900 0.556100 0.801500 
22.256636 -51.590393 -2.602675 -0.136800 0.851700 0.505800 
-14.139657 16.758730 7.570253 -0.072700 -0.333200 0.940000 
-15.739657 16.686729 7.687353 -0.462200 -0.340500 0.818800 
19.539135 -57.479496 -6.682777 0.083900 -0.994600 -0.061200 
-1.996866 33.457184 12.868607 -0.216700 0.927400 0.304900 
-0.599366 33.515484 14.089005 -0.217400 0.929200 0.298800 
-1.711872 36.534092 -9.354795 -0.090900 0.978100 -0.187000 
-37.174664 28.242615 11.848960 -0.336000 0.734700 -0.589300 
-37.695511 30.930464 13.434209 -0.167400 0.503700 -0.847500 
-33.901264 28.038668 13.486011 0.603200 0.788500 -0.119900 
14.038232 -49.685551 -10.328523 -0.917700 -0.354400 -0.179500 
8.887966 -21.310051 -0.002363 -0.740500 -0.428500 0.517700 
11.026217 -23.959900 -0.902866 -0.706400 -0.603800 0.369400 
-12.098166 -52.164967 -9.860921 0.832300 0.281100 0.477800 
-13.239864 -54.181213 -7.832222 0.893700 0.115200 0.433600 
-33.425209 26.423616 15.268159 0.848200 0.141400 0.510400 
13.331899 2.504754 -4.512558 0.802300 -0.595800 -0.035000 
-41.225513 27.030363 15.135610 -0.847800 0.173900 -0.500900 
-17.876062 -57.736912 -15.281272 -0.143300 -0.977200 -0.156500 
-6.864717 22.017546 -23.679047 -0.358000 0.515000 -0.778800 
16.422947 7.096056 -3.824756 0.784100 -0.620300 0.017800 
-6.530267 34.484833 13.257057 0.809700 0.542600 -0.223700 
14.458507 -10.361044 -13.084812 0.587600 0.504400 -0.632600 
-16.725109 14.455438 -17.000351 -0.879800 -0.232000 -0.414700 
-17.006109 16.085835 -16.019001 -0.888600 0.007900 -0.458600 
14.875884 26.791607 -8.228350 0.781500 0.619200 -0.075900 
25.187595 13.933402 16.264744 -0.596300 -0.223200 0.771100 
-1.981216 22.374197 -23.890049 -0.198000 0.181200 -0.963300 
-21.463461 18.785032 -7.382947 -0.551600 0.531700 -0.642700 
-10.382345 -3.748614 -0.588656 -0.767400 -0.255200 0.588100 
-11.329494 -5.700512 -2.166706 -0.793900 0.217900 0.567600 
-14.652275 -35.079765 -2.481465 0.707000 -0.008700 0.707100 
-8.582019 28.470846 -20.089146 -0.345800 0.315300 -0.883700 
30.993187 -57.664341 -6.821431 0.606100 -0.675000 -0.420600 
28.667984 -55.547588 -8.714628 0.518400 0.065300 -0.852600 
-8.771568 33.319138 -1.105744 -0.810400 0.539000 0.229600 
-10.638870 32.995182 -3.077842 -0.795400 0.495800 0.348600 
-11.613216 33.746628 15.105807 -0.337500 -0.368400 0.866200 
17.098265 -20.832043 -14.800766 0.373600 -0.242000 -0.895400 
19.713263 -21.331141 -13.554417 0.507400 -0.190500 -0.840400 
8.289480 38.002190 14.477255 0.314200 0.377200 -0.871200 
-19.791893 -12.102617 -6.730457 -0.661500 0.749900 -0.004700 
-1.174017 23.338999 -24.131498 -0.049100 0.185000 -0.981500 
17.864342 15.493408 -8.908753 0.982100 -0.109700 -0.153100 
18.691591 15.164707 -7.459453 0.676900 -0.005200 -0.736000 
18.061510 -12.300244 -3.420913 0.385700 0.825300 0.412300 
-11.362818 -51.297157 -14.918571 0.951300 0.281700 -0.124900 
-7.731511 15.632695 -23.648800 -0.304100 0.226100 -0.925400 
-0.897105 13.567988 12.971448 0.093100 -0.991000 0.096300 
24.382744 15.518104 15.571747 -0.720700 -0.092400 0.687000 
24.315643 18.768755 15.450046 -0.629800 0.000800 0.776700 
-13.742101 0.884635 -8.950804 -0.966100 -0.249400 -0.066700 
24.034590 20.751753 13.706397 -0.951200 0.308400 -0.011100 
-23.941036 -19.244473 -5.635958 -0.964700 0.259300 -0.046600 
-23.354637 -18.470272 -3.429608 -0.852000 0.407500 0.328500 
-22.897388 -16.316923 -5.401509 -0.839100 0.540600 0.059900 
-12.502026 -34.158264 -6.837016 0.947700 0.289700 0.133600 
-7.154538 -19.778856 -13.746861 0.205300 -0.789100 -0.579000 
37.320789 25.537664 14.585846 0.398400 0.884700 -0.241900 
-10.549836 -22.525311 -13.766512 0.486100 -0.390200 -0.781900 
0.004914 -19.051907 -0.421512 -0.006500 -0.962900 0.269800 
-2.633054 13.067136 10.638348 -0.268100 -0.644900 0.715700 
-4.806756 15.982685 12.534402 -0.764800 -0.643400 0.032600 
-6.949408 16.300436 10.103551 -0.540300 -0.299400 0.786300 
-12.596567 32.450829 14.488408 -0.695300 -0.424800 0.579700 
-16.942516 26.773186 -9.374844 -0.840300 0.511800 -0.178400 
-14.629869 29.726387 -9.359095 -0.567600 0.770700 -0.289600 
31.731096 10.669059 13.294094 0.196400 -0.980000 -0.030700 
6.207837 29.303343 13.567653 0.920900 0.387900 0.038800 
11.024852 1.735600 3.088242 0.567600 -0.717500 0.403700 
11.777302 1.087350 1.565442 0.638600 -0.715600 0.282900 
11.320452 2.749947 3.884043 0.721600 -0.568700 0.394800 
39.557743 16.437164 14.008444 0.876200 -0.360800 -0.319500 
23.330143 17.551306 13.891346 -0.969900 0.014500 0.243000 
-42.413254 19.239511 13.539707 -0.940200 -0.216700 0.262900 
-10.642314 29.710482 14.821806 -0.710100 -0.471000 0.523400 
-16.754152 6.804136 -13.122402 -0.864400 -0.386700 -0.321400 
-34.893261 30.867666 14.378660 0.549200 0.398700 -0.734400 
9.806458 -11.227446 -15.940912 0.462900 0.041400 -0.885400 
-11.460643 -9.468160 -15.390859 -0.391300 0.338400 -0.855700 
12.370497 4.548256 -13.897106 0.549600 -0.802600 -0.231800 
21.860813 -19.337944 1.003585 0.546300 0.432400 0.717300 
20.327415 -21.448944 2.649933 0.227200 0.187500 0.955600 
23.251215 -21.412491 0.944183 0.681900 0.307300 0.663700 
-13.761750 1.247934 -3.052704 -0.928400 -0.371400 0.010500 
-14.065700 0.879486 -5.605004 -0.882500 -0.470300 -0.002400 
8.701967 -23.278303 -2.879165 -0.702700 -0.547800 0.453900 
2.379082 34.374287 12.198456 -0.122300 0.978000 -0.168900 
0.169992 9.875250 -24.542101 0.022100 -0.290700 -0.956500 
-30.968157 18.574268 13.007606 0.781900 0.061700 0.620300 
8.242591 21.489744 13.124851 0.629400 -0.720300 0.291500 
-39.687462 25.924013 12.893458 -0.800900 0.565000 -0.198300 
28.487537 24.413759 12.251097 -0.293100 0.891000 -0.346800 
25.398266 -23.855841 -5.139618 0.986400 0.040600 -0.159000 
25.152967 -23.116093 -3.537817 0.982100 0.175900 0.067700 
-21.532917 -51.828175 -9.271770 -0.593400 0.804000 -0.037000 
-21.385567 -52.166416 -11.915870 -0.830300 0.410300 -0.377300 
-10.988841 -11.119064 1.018042 -0.327700 0.200100 0.923300 
-12.618488 -13.863465 0.487842 -0.251900 0.121000 0.960100 
-11.543137 -15.795665 0.654090 0.026400 0.079200 0.996500 
3.520394 8.562552 -23.365953 0.229700 -0.146900 -0.962100 
-19.060877 -35.104862 -15.137015 -0.169700 0.606900 -0.776400 
-21.244377 -36.319466 -15.034664 -0.566400 0.377100 -0.732700 
28.911547 10.769207 13.697993 -0.220400 -0.968400 0.116800 
19.980370 -28.888489 -9.715319 0.292500 -0.240900 -0.925400 
24.356194 13.478054 11.916794 -0.648200 -0.518500 0.557600 
26.442295 11.889405 13.650393 -0.535700 -0.839100 0.094200 
36.151100 13.748363 12.491342 0.596800 -0.782000 -0.179700 
4.469343 18.175140 12.657849 0.795800 -0.437400 0.418800 
-5.131758 9.500547 -23.539053 -0.335200 -0.117100 -0.934800 
25.388618 -25.467840 -1.970518 0.977300 0.204600 0.055500 
25.175869 -26.568392 -4.734468 0.951000 0.007000 -0.309200 
32.733788 24.441759 11.514996 0.149600 0.853500 -0.499200 
35.059738 23.465212 11.603396 0.156000 0.864100 -0.478600 
11.769219 -28.884197 -8.448217 -0.541400 -0.758900 -0.361700 
-23.632328 -30.685572 -2.983812 -0.973700 0.085900 -0.210900 
-9.112803 4.495944 -20.351454 -0.345000 -0.530900 -0.774000 
-11.962267 31.028131 13.751405 -0.828000 -0.493600 -0.266100 
1.940445 14.314289 10.722798 0.386200 -0.655000 0.649400 
0.206946 12.638239 10.254998 0.218500 -0.652300 0.725800 
-3.762787 -21.662001 -21.004763 -0.976900 -0.193200 0.091200 
4.841432 36.484436 13.684606 -0.337600 0.690800 -0.639300 
-34.953804 10.571218 10.197153 -0.364700 -0.928000 0.075700 
-32.916656 10.066668 9.192353 0.001600 -0.989700 -0.143400 
-32.917202 10.710117 12.240354 -0.009000 -0.906300 0.422400 
-22.510323 -41.604923 -8.236165 -0.957300 -0.252200 0.141400 
-23.640522 -40.802025 -10.680615 -0.981400 -0.190400 0.025800 
-14.681191 -12.960612 -13.466007 -0.652100 0.279700 -0.704600 
-8.836714 30.036634 11.289255 -0.882600 0.225300 -0.412500 
5.760391 21.479643 12.236450 0.586800 -0.800700 0.120600 
8.722737 25.119545 12.410901 0.946500 0.171100 0.273500 
38.077339 22.674713 11.819295 0.681100 0.496800 -0.537800 
-18.177263 24.107031 -1.318895 -0.794200 0.572000 0.204800 
-16.058016 27.187782 -5.461345 -0.696200 0.678200 0.235400 
-9.321513 28.816885 13.049755 -0.975800 -0.157100 -0.151900 
7.234732 34.001690 13.114905 0.605100 0.008700 -0.796100 
-24.444464 -57.380573 -9.941571 -0.689900 -0.484400 -0.537900 
-16.789663 21.681686 -14.414795 -0.875600 0.180000 -0.448200 
2.579113 -22.202547 -21.919662 0.969200 -0.188800 0.157700 
25.899027 -38.548641 -5.843222 0.984300 -0.156500 -0.082000 
25.459927 -42.423691 -4.131474 0.816200 -0.539500 0.206900 
-5.101255 15.476186 13.293251 -0.831400 -0.523300 -0.186600 
-6.972319 27.722246 -20.527548 -0.301500 0.432700 -0.849600 
-8.231668 26.842443 -21.224497 -0.337000 0.639500 -0.691000 
-17.189116 23.333885 -13.997146 -0.784800 0.216000 -0.580800 
26.077171 -30.830641 -3.620720 0.969600 0.222500 -0.101900 
24.289270 -30.527689 -6.943220 0.741400 0.432300 -0.513200 
-7.161409 18.442686 12.877551 -0.841400 -0.538000 0.050900 
-42.150810 22.932961 12.104158 -0.935300 0.352200 0.034000 
6.717041 21.483044 10.444501 0.323500 -0.709800 0.625700 
-12.718920 32.060837 -8.699494 -0.857200 0.499500 -0.125100 
2.320152 1.967741 8.565094 -0.406600 -0.725000 0.555900 
1.474902 1.881492 6.712493 -0.039000 -0.513700 0.857100 
-6.048617 32.993237 10.562257 -0.243000 0.923300 -0.297200 
-11.236257 15.726933 8.007202 -0.421500 -0.335100 0.842600 
-8.700054 12.874483 9.421399 0.048700 0.394800 0.917400 
8.869797 4.217155 -18.125158 0.454700 -0.762200 -0.460700 
3.451297 2.917751 -20.299906 0.271500 -0.144900 -0.951400 
-9.995321 -42.999107 -12.678568 0.972400 -0.028100 -0.231600 
16.455984 -53.724148 -6.449975 -0.811000 -0.105300 0.575400 
25.903471 -33.594643 -7.719770 0.936400 0.235300 -0.260400 
1.856944 14.932139 12.680449 0.604100 -0.758700 0.243600 
4.751334 22.981455 -23.325598 0.458800 0.630900 -0.625600 
26.663326 -36.892193 -3.442522 0.960100 -0.226000 0.164400 
-15.483118 28.171087 -11.830544 -0.836800 0.537700 -0.102800 
-29.350962 24.931070 12.384156 0.824100 0.243800 0.511200 
-32.431461 27.705418 12.880659 0.498800 0.842100 0.205000 
-16.446857 11.235188 -15.658449 -0.921400 -0.224600 -0.317000 
5.931184 31.530842 12.580053 0.840200 -0.086000 -0.535400 
10.874155 -8.335945 -15.234060 0.538500 0.250800 -0.804400 
10.361905 -6.823396 -14.556009 0.667800 0.184500 -0.721100 
-18.009991 -12.076219 -2.796507 -0.479200 0.720100 0.501700 
-29.544853 13.099470 13.731253 0.574100 -0.503300 0.645700 
-2.327655 13.868686 12.906098 -0.400300 -0.912600 0.083300 
16.076977 -41.212887 -13.372822 -0.497700 0.064400 -0.864900 
17.226719 -29.560593 -9.506568 -0.023600 -0.407000 -0.913100 
-37.994156 12.375264 10.386053 -0.666900 -0.743800 0.043200 
-41.125664 24.995863 11.618758 -0.799400 0.600800 -0.001500 
-2.976549 4.391787 9.641797 0.534700 -0.310400 0.785900 
-4.068100 6.915386 10.573597 0.250600 -0.006600 0.968000 
-27.894207 14.623421 12.654453 0.784200 -0.063300 0.617200 
23.284468 -27.747940 -7.896118 0.747700 -0.097100 -0.656900 
-29.956711 22.137419 11.237407 0.607200 -0.147300 0.780700 
-10.584460 23.022482 12.241654 -0.862400 -0.421600 0.280200 
14.854830 -43.468250 -2.587572 -0.556900 -0.394900 0.730600 
18.563025 -39.370487 -14.119223 -0.214400 0.119200 -0.969500 
17.519823 -35.623489 -12.868021 -0.363600 0.338300 -0.867900 
11.994357 -14.007394 -15.557263 0.202000 0.191900 -0.960400 
12.307659 -16.963345 -16.031261 0.029200 0.041000 -0.998700 
5.707781 35.439739 12.762155 0.212700 0.495700 -0.842000 
33.446594 11.774110 11.035492 0.486900 -0.792400 -0.367500 
-10.961470 31.801739 -13.529296 -0.461500 0.849400 -0.256200 
-8.231689 -17.889460 -15.727061 0.062600 -0.505700 -0.860400 
23.192194 16.267504 11.620246 -0.836300 -0.010600 0.548100 
-26.839859 17.531622 10.881405 0.794500 0.256200 0.550400 
9.226961 -18.350199 -15.959363 -0.179100 -0.318300 -0.930900 
6.329340 12.121854 -23.226355 0.265700 -0.137700 -0.954200 
6.652489 16.047703 -23.394905 0.251800 0.077900 -0.964600 
26.752937 -56.772991 3.111022 0.986700 -0.159600 0.030800 
27.262541 -57.968288 8.032570 0.409400 -0.428100 0.805700 
25.463537 -57.595394 4.430622 -0.104300 -0.991500 0.077900 
-14.882114 -52.146366 -5.744771 0.651100 0.658200 0.378000 
-16.080666 -52.001919 -2.857821 0.339200 0.837900 0.427500 
-7.288817 34.170681 12.001307 0.174800 0.719900 -0.671600 
1.207148 2.167250 -20.742107 -0.083600 0.034400 -0.995900 
-1.745899 -3.048053 -19.724005 -0.039800 0.461800 -0.886100 
28.600147 10.660756 12.081643 -0.212800 -0.956000 -0.202000 
-20.804668 -49.363514 -13.840368 -0.871500 -0.375000 -0.315900 
1.074282 27.149899 -22.741047 0.279900 0.459800 -0.842700 
1.868382 24.254002 -23.440847 0.241900 0.114400 -0.963500 
-27.691254 12.708521 10.950552 0.837600 -0.528500 0.137700 
38.392345 14.884214 11.296043 0.734400 -0.578100 -0.355400 
-8.870032 -26.343309 -8.064063 0.860700 -0.499900 0.096500 
26.444538 22.839756 11.278947 -0.569000 0.741900 -0.354700 
36.351337 23.004662 10.823996 0.277300 0.836200 -0.473000 
5.262960 -16.443451 -15.119112 -0.086700 -0.727800 -0.680200 
12.798362 -18.869446 -16.052765 -0.098400 -0.152000 -0.983500 
14.846310 -15.549442 -15.938765 0.244200 0.199000 -0.949100 
-10.141765 27.036783 11.260105 -0.917900 0.348400 0.189700 
-38.029163 27.306564 12.254560 -0.627200 0.645300 -0.436100 
16.683887 -56.749249 -6.675526 -0.745800 -0.413400 0.522300 
18.237188 -57.540096 -5.755679 -0.371100 -0.893100 0.254300 
18.958389 -55.727543 -2.953577 -0.872700 0.015600 0.488000 
30.754847 10.912559 10.888843 0.050000 -0.946800 -0.317900 
35.024044 14.250360 9.665092 0.535000 -0.548800 -0.642300 
-38.649101 13.617614 11.769555 -0.706700 -0.677500 0.203700 
24.680790 21.408606 11.230597 -0.760600 0.613200 -0.212900 
4.017584 23.522703 -22.759850 0.307200 0.417200 -0.855300 
-7.544959 19.351633 11.417451 -0.899600 -0.357600 0.250500 
-5.090967 24.366945 -23.376549 -0.287600 0.105500 -0.951900 
14.334961 -18.877293 -16.291115 0.078500 -0.105700 -0.991300 
-38.990967 27.121664 11.024810 -0.442300 0.894500 -0.064700 
7.949436 27.993544 10.835652 0.845100 0.509300 0.162300 
-34.628319 28.196516 11.188609 0.121000 0.973300 -0.194800 
6.166687 18.223154 -23.374352 0.296500 0.052000 -0.953600 
-13.887543 -5.972063 -7.507206 -0.919200 0.367300 0.142000 
5.395885 30.712593 10.782803 0.858400 0.506700 -0.079500 
11.879283 29.635401 -4.089297 0.875300 0.456300 0.160100 
18.181837 23.360004 -3.193551 0.963400 0.231600 0.134900 
-4.431650 -1.268203 -21.186806 0.073600 -0.082800 -0.993800 
-31.437963 26.753670 10.758108 0.575300 0.794000 -0.196300 
4.480644 15.785190 10.622849 0.480700 -0.420500 0.769400 
6.249843 17.429092 9.911249 0.476800 -0.266200 0.837700 
-8.522115 21.098345 -23.146196 -0.390400 0.252500 -0.885300 
-43.164459 19.245913 11.568656 -0.968700 -0.167400 0.182900 
-15.018016 -50.508720 -8.008420 0.430500 0.647600 0.628600 
-12.433067 -50.298515 -11.052221 0.875000 -0.033000 0.483000 
-14.010368 -49.473763 -9.070620 0.536300 -0.285700 0.794200 
8.434933 26.342205 -19.782400 0.586800 0.552300 -0.592000 
-8.235217 33.333488 11.519807 -0.310200 0.405300 -0.860000 
-0.589318 34.530495 11.473005 -0.133600 0.955700 0.262200 
26.405895 11.912305 11.459144 -0.243700 -0.891200 0.382500 
12.485885 27.216902 -2.622000 0.666900 0.715800 0.207000 
11.622281 30.567705 -7.065548 0.726000 0.684600 -0.064700 
