118.740677 166.964417 54.567577 4.041035 0.986829 -4.222850 
119.349411 165.737473 54.984570 4.282402 0.698843 -4.121895 
119.913513 164.427750 55.267193 3.985710 -0.569803 -4.056376 
119.881477 163.155228 56.053741 3.725058 -3.467764 -2.911795 
119.548523 162.356064 57.206646 2.572200 -4.131023 -3.226832 
119.462883 160.962296 58.425079 0.680768 -4.565507 -3.610533 
119.347923 160.098099 60.034992 -1.519184 -5.211457 -2.145416 
119.360474 159.589050 61.666874 -3.027268 -4.886026 -1.606205 
119.448051 158.891937 63.232681 -2.920531 -4.770515 -2.031741 
119.686523 158.061478 64.834343 -1.958991 -4.983376 -2.546150 
120.250107 157.107071 66.511108 -0.584437 -5.631230 -1.459705 
121.313026 156.960403 68.374924 0.602356 -5.796944 0.659928 
121.176453 157.144791 69.291008 0.644765 -5.753677 0.614821 
120.827477 157.060959 70.094383 1.293665 -5.728668 -0.093113 
120.243057 156.875259 70.540993 0.450874 -5.800493 -0.548501 
118.448723 157.072403 70.199020 -0.453995 -5.712942 -1.495329 
116.871193 157.226944 69.938744 -0.615608 -5.733278 -1.556560 
115.452187 157.575745 69.716492 -2.002345 -5.466415 -1.150168 
114.217400 158.246185 69.583344 -2.441949 -5.272822 -1.177832 
112.930069 158.742584 69.488914 -0.901978 -5.564760 -0.163206 
111.526917 158.736557 69.467140 -0.392622 -5.699254 1.723135 
109.904587 158.841995 69.336853 1.100141 -5.581787 0.550156 
108.718773 158.290710 69.361961 2.779510 -4.884811 -1.742919 
108.016190 157.794861 69.553917 2.640953 -4.443502 -2.709169 
107.558159 157.648300 68.799026 3.477175 -3.506418 -0.739623 
105.207764 155.810852 68.864044 2.703086 -3.426050 -4.012934 
104.165947 155.379990 68.805557 1.310618 -3.669389 -4.508469 
103.106613 154.999359 68.856186 -1.208089 -2.764479 -4.650821 
102.175911 155.190598 69.468628 -4.088715 -0.785256 -4.032054 
101.272453 155.559341 70.653404 -5.301251 0.027398 -1.252515 
101.667084 155.315567 72.029861 -5.001638 -0.280347 2.848927 
102.509491 155.299286 72.961906 -3.636052 -0.813503 4.473617 
103.072380 155.865585 73.507713 -3.278466 -0.175340 4.758460 
104.200691 156.372116 73.988213 -1.133921 1.996962 5.290174 
105.491890 156.167496 73.982109 1.773866 2.827251 4.606984 
106.384956 155.431549 73.732674 4.471173 2.135468 3.083946 
106.920921 154.681137 73.075378 5.496901 0.842793 0.170726 
106.590202 154.729950 72.084892 5.690928 0.160300 -1.837769 
106.356529 155.028381 71.355980 5.699291 -0.519463 -1.514379 
106.239479 155.121460 70.811378 5.245785 -1.976749 -1.858252 
106.017143 155.552444 69.838051 4.197969 -2.913989 -3.007711 
108.570793 157.380432 70.184196 1.247816 -4.720453 -1.144961 
108.970284 157.864182 71.115204 0.744881 -3.331020 4.345427 
110.124733 158.801971 71.283615 -1.196195 -1.371259 5.427426 
111.285187 159.286682 71.898705 -2.676482 -0.193464 5.304864 
112.468201 159.783859 72.500481 -3.281283 -0.039475 4.974925 
113.421219 160.354263 73.339935 -4.062879 -1.400845 4.014949 
113.507057 161.217712 73.903107 -4.449807 -1.617221 3.631995 
113.641541 162.066986 74.371147 -4.129272 -0.430711 4.207283 
113.503326 163.407623 74.152588 -2.741547 1.705188 4.725720 
113.751190 164.617432 73.406540 -1.425828 3.723830 4.372419 
113.794327 165.564743 72.446877 -0.557422 4.623436 3.747272 
113.700684 166.343262 71.325989 -0.472179 4.484036 3.917179 
113.532829 167.359451 70.374542 -0.247867 4.294723 4.134979 
113.344902 168.253525 69.241203 0.885143 4.931746 3.051652 
113.162399 169.007858 67.942741 1.765990 4.919538 2.910192 
112.988167 169.883102 66.719467 1.092935 4.472318 3.686971 
112.853050 170.996933 65.559151 0.787884 4.436920 3.939504 
112.731483 172.114212 64.273354 1.992659 4.706015 2.898543 
112.364433 172.924911 62.854561 1.680726 4.778545 2.967166 
112.933159 173.175415 62.447323 2.515122 4.424789 1.805787 
113.139992 172.857941 61.881416 2.596496 4.546524 1.900553 
112.923126 173.721878 60.583412 2.994730 4.673925 0.503864 
112.250008 173.910660 59.769466 2.244794 3.258973 -0.006141 
112.446838 173.885391 59.292446 4.248763 5.430884 0.654312 
112.393311 174.182648 57.982754 5.105664 6.061180 1.061673 
112.045387 174.919510 55.849609 3.945264 4.432644 0.680714 
112.860313 173.927567 56.777767 4.693354 3.691061 -0.009681 
113.044571 173.552185 56.072063 5.035082 3.112986 -0.639650 
-113.091766 173.026550 55.374989 -4.794001 3.154732 -1.191035 
-113.044563 173.552170 56.072060 -5.137889 2.924871 -0.618940 
-112.860313 173.927567 56.777767 -4.730505 3.640031 0.046182 
-112.044472 174.918076 55.849152 -3.943053 4.434991 0.679655 
-112.393303 174.182632 57.982750 -5.065277 6.095913 1.055760 
-112.446831 173.885391 59.292442 -3.652269 4.663166 0.420195 
-112.249985 173.910629 59.769455 -2.312880 3.179920 0.289519 
-112.923126 173.721878 60.583412 -3.523007 5.520745 0.442358 
-113.139984 172.857925 61.881413 -2.705977 4.448569 1.688372 
-112.933159 173.175415 62.447323 -2.444060 4.452727 2.097334 
-112.364426 172.924896 62.854557 -1.642220 4.848433 2.887269 
-112.731537 172.114304 64.273384 -1.992910 4.705888 2.898363 
-112.853043 170.996918 65.559143 -0.788018 4.436842 3.939584 
-112.988167 169.883102 66.719467 -1.093037 4.472311 3.687018 
-113.162392 169.007858 67.942741 -1.765923 4.919537 2.910229 
-113.344894 168.253510 69.241196 -0.885100 4.931745 3.051686 
-113.532829 167.359451 70.374542 0.247929 4.294654 4.135029 
-113.700623 166.343170 71.325951 0.472272 4.483986 3.917182 
-113.794327 165.564743 72.446877 0.557427 4.623511 3.747158 
-113.751183 164.617416 73.406532 1.425815 3.723823 4.372431 
-113.503326 163.407623 74.152588 2.741544 1.705201 4.725712 
-113.641541 162.066986 74.371147 4.199580 -0.339081 4.152688 
-113.507057 161.217712 73.903107 4.406007 -1.785312 3.604829 
-113.421211 160.354248 73.339928 4.036361 -1.324370 4.096719 
-112.468193 159.783844 72.500473 3.281288 -0.039467 4.974920 
-111.285179 159.286667 71.898697 2.676484 -0.193465 5.304864 
-110.124733 158.801971 71.283615 1.196201 -1.371255 5.427425 
-108.970284 157.864182 71.115204 -0.744896 -3.331005 4.345436 
-108.570786 157.380417 70.184189 -1.247818 -4.720465 -1.144953 
-108.016182 157.794846 69.553909 -3.162778 -5.263275 -2.945112 
-107.558159 157.648300 68.799026 -3.402416 -3.568730 -0.793287 
-105.207756 155.810837 68.864037 -3.242958 -4.021817 -4.607572 
-106.017143 155.552444 69.838051 -4.197989 -2.913977 -3.007699 
-106.239471 155.121460 70.811378 -5.245785 -1.976744 -1.858268 
-106.356529 155.028381 71.355980 -5.699292 -0.519473 -1.514391 
-106.590195 154.729935 72.084885 -5.690930 0.160279 -1.837767 
-106.920921 154.681137 73.075378 -5.496879 0.842784 0.170762 
-106.384949 155.431534 73.732666 -4.428784 2.253480 3.041318 
-105.491882 156.167480 73.982101 -1.879685 2.614789 4.696880 
-104.200691 156.372116 73.988213 1.284681 1.713085 5.272176 
-103.072380 155.865585 73.507713 2.938087 -0.079761 4.863176 
-102.509491 155.299286 72.961906 3.889124 -0.530826 4.339709 
-101.667076 155.315552 72.029854 5.001637 -0.280344 2.848927 
-101.272446 155.559326 70.653397 5.301197 0.027427 -1.252578 
-102.175957 155.190674 69.468658 4.088703 -0.785158 -4.032112 
-103.106651 154.999405 68.856209 1.208172 -2.764558 -4.650753 
-104.165939 155.379974 68.805550 -1.310530 -3.669402 -4.508502 
-108.718773 158.290710 69.361961 -2.779492 -4.884806 -1.742954 
-109.904579 158.841980 69.336845 -1.100133 -5.581783 0.550181 
-111.526909 158.736542 69.467133 0.392612 -5.699242 1.723149 
-112.930069 158.742584 69.488914 0.901942 -5.564750 -0.163252 
-114.217400 158.246185 69.583344 2.441955 -5.272805 -1.177845 
-115.452179 157.575729 69.716484 2.002386 -5.466395 -1.150138 
-116.871185 157.226929 69.938736 0.615589 -5.733270 -1.556594 
-118.448715 157.072388 70.199013 0.453990 -5.712941 -1.495309 
-120.243057 156.875259 70.540993 -0.839456 -5.745811 -0.326983 
-120.827469 157.060944 70.094376 -0.905084 -5.783360 -0.314653 
-121.176453 157.144791 69.291008 -0.877721 -5.706876 0.753147 
-121.313026 156.960403 68.374924 -0.369424 -5.843747 0.521578 
-120.250099 157.107056 66.511101 0.584401 -5.631231 -1.459706 
-119.686516 158.061462 64.834335 1.958948 -4.983383 -2.546165 
-119.448044 158.891922 63.232677 2.920509 -4.770525 -2.031753 
-119.360466 159.589035 61.666870 3.027268 -4.886025 -1.606226 
-119.347923 160.098099 60.034992 1.519215 -5.211451 -2.145407 
-119.462875 160.962280 58.425076 -0.680755 -4.565513 -3.610528 
-119.548515 162.356049 57.206642 -2.572178 -4.131030 -3.226843 
-119.881470 163.155212 56.053738 -3.725045 -3.467765 -2.911807 
-119.913513 164.427750 55.267193 -3.985705 -0.569792 -4.056381 
-119.349403 165.737457 54.984566 -4.282400 0.698851 -4.121895 
-118.740669 166.964401 54.567574 -4.041035 0.986829 -4.222850 
-117.982155 168.257065 54.306942 -3.772930 2.256413 -3.967240 
-118.145020 168.945374 55.001617 -3.623141 3.126936 -3.498090 
-116.975349 170.171005 55.147884 -3.156832 4.038854 -3.042469 
-115.608719 171.223328 55.341667 -2.659490 4.718770 -2.277283 
-114.181473 171.994339 55.387028 -3.381390 4.588087 -1.676154 
-29.079399 81.018539 3.040539 2.599447 1.543460 -5.074729 
-31.518717 80.222725 1.860403 1.542248 2.725537 -5.051538 
-33.924030 79.459778 0.599269 1.008207 3.550813 -4.685524 
-36.600304 78.551193 -0.391812 -0.209452 3.980861 -4.382595 
-39.770836 77.236488 -1.106696 -1.285222 4.170822 -4.063190 
-43.577534 74.993660 -1.607911 -2.822984 3.886122 -3.365343 
-47.274418 71.624550 -1.159341 -4.317628 3.144688 -2.494523 
-49.206638 70.363152 1.594722 -5.211993 2.498566 -1.153198 
-49.599194 69.218430 3.903138 -5.526539 2.200252 -0.618208 
-51.011902 65.488533 3.777117 -5.564549 2.062147 -0.866087 
-52.282654 61.670914 3.429062 -5.797647 1.237673 -0.156906 
-52.680336 57.453979 3.389331 -5.858167 0.093404 1.003899 
-52.563396 53.324623 3.044357 -5.800759 -0.402754 1.440534 
-52.195244 52.714775 4.448060 -5.782597 -0.186648 1.544329 
-51.233006 55.464622 7.506750 -5.604512 -0.055494 2.128470 
-50.349194 58.738319 9.621287 -5.719223 0.475304 1.293574 
-50.830574 54.995514 8.788737 -5.850743 0.189948 1.209840 
-50.682693 51.300438 9.011744 -5.523181 -0.761032 2.091113 
-49.859879 51.131683 10.693725 -4.879012 -1.404035 3.027596 
-48.342274 47.199551 9.898009 -2.931909 -2.772036 4.285677 
-46.679836 43.065277 7.980018 -1.238091 -3.093581 4.943130 
-45.391220 40.817436 6.744105 0.296066 -3.124799 4.998268 
-44.371174 38.793312 5.185883 2.140589 -3.050252 4.641091 
-43.309032 38.850582 4.558686 2.992420 -2.992259 4.245269 
-42.003510 41.164444 5.187665 3.237732 -2.958853 4.092075 
-40.654247 43.767929 6.039008 3.094809 -3.066841 4.120521 
-39.079388 47.897350 8.031128 2.199168 -3.422431 4.353443 
-37.031780 51.165668 10.084521 0.848137 -3.471914 4.789742 
-34.148884 53.752373 11.519873 0.835864 -3.362504 4.827538 
-31.489960 55.971909 12.399547 2.363857 -3.320573 4.290224 
-28.986668 58.443138 12.188820 3.924266 -2.618387 3.648375 
-26.888609 61.177483 11.166492 4.831321 -1.830269 3.005329 
-25.510237 61.615204 8.763086 5.302374 -1.533573 2.303135 
-24.590902 62.180847 6.639050 5.692605 -1.049293 1.432323 
-24.143887 65.783081 6.455017 5.941785 -0.415871 0.437604 
-24.085234 69.450005 6.786731 5.905221 0.325957 -0.704990 
-24.382973 73.159294 7.619230 5.678841 0.654097 -1.767749 
-24.705544 76.462334 7.414662 5.495091 0.132831 -2.358170 
-25.275620 78.549156 6.248402 5.027582 0.313670 -3.194170 
-26.740171 80.332298 4.681055 4.060050 0.884451 -4.219468 
27.745897 78.399078 4.761064 -3.844266 1.979080 -4.008756 
26.132357 76.801659 5.561718 -4.638435 2.142237 -3.082032 
25.031378 73.929497 5.761828 -5.106897 1.806597 -2.575953 
24.090544 70.256226 5.025535 -5.319375 1.619644 -2.221071 
23.252827 66.561668 4.555283 -5.756753 0.432737 -0.982871 
23.651608 62.673782 4.713474 -5.927341 -0.869063 0.027736 
24.458712 58.833530 5.173067 -5.727615 -1.539396 0.751274 
25.141022 58.322815 7.583277 -5.268275 -2.080972 1.821462 
26.588131 57.999786 10.175628 -4.499947 -2.563595 2.956328 
29.174358 55.118206 10.967461 -3.163085 -3.204320 3.828390 
32.215435 52.927376 10.648639 -1.457314 -3.638237 4.478330 
35.264370 50.661594 9.450059 -0.745193 -3.689029 4.661268 
38.179119 47.796513 7.567520 -1.659272 -3.616404 4.432202 
39.892021 43.955238 5.598083 -2.882060 -3.178520 4.178372 
41.046364 41.451435 4.601576 -3.303188 -3.003093 4.006387 
42.322781 38.923050 3.846608 -3.345328 -2.987194 3.981328 
43.735981 36.628777 3.231147 -3.152775 -3.032672 4.102055 
44.722969 36.666046 3.957965 -2.344308 -3.012030 4.574499 
45.582947 38.716446 5.483214 -0.222586 -2.998711 5.022421 
46.763157 41.033401 6.653738 1.338560 -3.067685 4.957359 
48.120247 43.515373 7.695941 2.468121 -2.852796 4.615899 
49.789593 47.518456 8.843978 4.349632 -2.003595 3.367193 
50.615295 47.679798 7.355452 5.355181 -1.246010 2.365086 
51.149700 51.209732 7.485926 5.657679 -0.510590 1.867238 
51.023052 55.002678 8.007997 5.689299 0.032291 1.813366 
51.907551 51.874687 5.448099 5.747267 -0.222905 1.638489 
52.486195 49.172863 1.697549 5.937887 -0.259735 0.748097 
52.678986 49.897415 0.567063 5.821846 -0.674396 1.146045 
53.017719 53.757439 1.162441 5.845047 -0.069966 0.657567 
52.827003 57.969025 1.068708 5.844078 0.779624 -0.605105 
51.960026 62.021599 1.477899 5.608404 1.725757 -1.154817 
50.491966 65.950897 1.841264 5.531422 2.010154 -1.126205 
49.604744 67.088631 -0.534070 5.387783 1.896396 -1.654114 
47.926144 68.577347 -3.549838 4.338840 2.582269 -3.002526 
44.251823 72.722321 -3.528124 2.563016 3.593797 -3.854232 
40.485638 74.857368 -2.650823 0.684603 4.293750 -4.083234 
37.211784 76.293198 -1.173317 -0.293106 4.187660 -4.233723 
34.408699 77.234352 0.069783 -1.144230 3.781719 -4.489985 
32.011070 78.144623 1.708345 -1.885556 3.642609 -4.368081 
29.826040 78.898903 3.403759 -2.735315 2.775843 -4.407753 
113.911034 172.440872 56.303127 4.009284 4.237323 -1.076841 
115.294777 171.461945 56.246803 2.763940 5.216092 -0.775748 
116.933617 170.745041 56.055317 2.981130 4.837149 -1.461168 
118.204338 169.610062 55.889797 3.918310 3.848276 -2.199621 
119.135201 168.315720 55.808987 4.496503 2.789472 -2.712518 
118.962936 167.627350 55.090240 4.371228 1.952657 -3.573969 
119.591232 166.340302 55.338776 4.516421 0.887437 -3.814238 
120.060516 165.175903 55.775654 4.691062 0.738514 -3.645322 
120.503220 163.786682 56.026321 4.524435 -1.687525 -2.832528 
120.189957 162.834839 57.096058 3.231925 -3.523636 -3.195732 
120.236961 161.601730 58.110821 1.591854 -3.618250 -4.401959 
120.193512 160.308548 59.380695 -0.377066 -4.654512 -3.605298 
120.072441 159.413055 60.840782 -1.909053 -5.076098 -2.384263 
120.116203 158.808243 62.353149 -2.146784 -5.196429 -1.861687 
120.314232 158.187866 63.975082 -1.251940 -5.313328 -2.250275 
120.753960 157.245285 65.579956 0.001680 -5.457896 -2.070266 
121.640579 157.046738 67.456589 0.984000 -5.863928 -0.397682 
122.494057 157.349030 69.244705 0.704143 -5.636472 1.332575 
122.262413 157.670776 69.952637 1.267522 -5.490992 1.374767 
121.469139 157.235474 70.007935 1.919384 -4.528730 0.249922 
121.780891 157.492737 70.878418 2.392965 -5.467602 0.230292 
121.262848 157.301910 71.350998 1.931778 -5.644455 0.502860 
119.717957 156.814362 71.121109 0.325407 -5.790379 0.502246 
118.068970 157.016235 70.768784 -0.437560 -5.903820 -0.445761 
116.596413 157.158157 70.421272 -1.086778 -5.789988 -0.768679 
115.202232 157.665878 70.157448 -2.405609 -5.446937 -0.552785 
113.946609 158.319519 69.961075 -2.532547 -5.348475 -0.399261 
112.664047 158.928574 69.869766 -1.462077 -5.484492 1.330436 
111.137131 159.087463 69.828583 0.260165 -5.665814 0.815154 
109.435188 158.640366 69.752449 2.295259 -4.573673 -2.367644 
108.570824 158.018036 69.733185 2.387309 -3.887408 -3.735766 
105.188263 155.253601 69.246483 2.692121 -3.190965 -4.147943 
104.082138 154.801315 69.163658 1.298629 -3.027313 -4.991327 
102.941513 154.524048 69.127930 -1.435859 -2.136629 -5.006323 
101.774094 154.790894 69.860031 -4.465981 -1.425256 -3.109407 
101.526787 154.672104 71.405128 -5.316165 -1.897827 1.088458 
102.062881 154.734375 72.530907 -4.011467 -1.617024 3.676476 
102.939980 154.908173 73.009460 -3.704937 -0.404969 4.347201 
103.334007 155.390076 73.508492 -3.343819 -0.342880 4.700369 
104.337067 155.885727 74.167473 -1.534392 1.043683 5.434446 
105.568764 155.784332 74.180168 1.622701 2.372876 4.966109 
106.416870 155.188644 73.937218 4.384028 2.058898 3.082584 
106.855331 154.451019 73.249962 5.646142 0.268075 0.720147 
106.721130 154.110413 72.549622 5.769491 -0.647575 -1.330707 
106.440819 154.167282 71.649696 5.565900 -0.372244 -2.153447 
106.132507 154.604309 70.930489 5.124410 -1.165910 -2.724325 
105.753502 154.855789 70.170784 4.285148 -2.487432 -3.256897 
109.241547 157.574509 70.396072 1.800917 -4.010565 -0.431141 
110.122910 158.507675 71.059769 -0.132462 -3.607366 4.465341 
111.131477 158.870560 71.749420 -2.234206 -2.360573 4.815705 
112.184479 159.246796 72.371979 -2.995773 -0.492863 5.114069 
113.179031 159.597260 73.027306 -3.433798 -0.493580 4.862162 
114.010071 160.077423 73.737343 -3.837223 -1.936594 4.054095 
113.923813 160.891403 74.436485 -4.150782 -2.059131 3.715375 
114.134727 161.698959 74.846985 -4.191788 -0.357844 4.139134 
114.058868 163.043167 74.610054 -3.100971 1.862337 4.490778 
114.442543 164.351852 73.873352 -1.460145 3.785722 4.350525 
114.579483 165.196289 72.972473 -0.559439 4.616596 3.728618 
114.506660 165.941803 71.991318 -0.098868 4.736888 3.662426 
114.359734 166.755127 70.985130 0.276645 4.451299 3.920728 
114.182884 167.722733 70.003838 1.434476 4.769324 2.938634 
113.933838 168.288376 68.675835 2.150407 5.086585 2.306088 
113.761543 169.037949 67.403656 0.723993 4.374743 3.623590 
113.700981 170.130020 66.370911 0.355679 4.461062 3.927991 
113.507393 171.150772 65.139145 2.198916 4.586424 2.787581 
113.230629 172.010117 63.692513 1.930913 4.607534 3.004333 
113.829910 172.224899 63.309601 2.345640 4.498905 2.131157 
114.034103 171.950119 62.765594 2.725070 4.368912 1.673934 
113.632347 173.126526 61.531940 2.615064 4.192040 1.364029 
113.050667 173.354660 60.026646 3.886569 4.386538 -0.181882 
112.684769 173.800385 58.884136 3.023034 3.926715 0.621705 
112.649391 174.112640 57.317127 3.517837 3.505088 0.384601 
113.565323 173.058655 57.785992 4.372530 4.062234 -0.310908 
113.694153 172.807129 57.143795 4.365906 3.990712 -0.657089 
-113.911034 172.440872 56.303127 -3.847019 4.431318 -0.972561 
-113.694145 172.807114 57.143791 -4.404932 3.935234 -0.790981 
-113.565323 173.058655 57.785992 -4.495768 3.923730 -0.281199 
-112.649384 174.112625 57.317123 -4.174594 4.251703 0.491322 
-112.684753 173.800354 58.884129 -2.403205 3.148802 0.518489 
-113.050652 173.354645 60.026638 -3.886615 4.386516 -0.181961 
-113.632339 173.126511 61.531937 -2.615052 4.192034 1.364045 
-114.034096 171.950104 62.765591 -2.554829 4.517227 1.869428 
-113.829971 172.224991 63.309635 -2.500821 4.365114 1.921242 
-113.230621 172.010101 63.692509 -1.945975 4.592546 3.018040 
-113.507393 171.150772 65.139145 -2.198990 4.586304 2.787486 
-113.700974 170.130005 66.370903 -0.355572 4.461047 3.928065 
-113.761536 169.037949 67.403656 -0.724043 4.374759 3.623571 
-113.933838 168.288376 68.675835 -2.150409 5.086569 2.306123 
-114.182869 167.722717 70.003830 -1.434473 4.769346 2.938622 
-114.359734 166.755127 70.985130 -0.276511 4.451238 3.920772 
-114.506653 165.941788 71.991310 0.098995 4.736886 3.662410 
-114.579475 165.196274 72.972466 0.559435 4.616593 3.728609 
-114.442535 164.351837 73.873344 1.460161 3.785719 4.350528 
-114.058861 163.043152 74.610046 3.100960 1.862339 4.490781 
-114.134727 161.698959 74.846985 4.029665 -0.513635 4.257010 
-113.923805 160.891388 74.436478 4.214767 -1.972332 3.663278 
-114.010071 160.077423 73.737343 3.935349 -1.867579 3.988329 
-113.179024 159.597244 73.027306 3.433795 -0.493572 4.862164 
-112.184479 159.246796 72.371979 2.995781 -0.492859 5.114065 
-111.131470 158.870544 71.749413 2.234203 -2.360589 4.815692 
-110.122910 158.507675 71.059769 0.132465 -3.607374 4.465332 
-109.241547 157.574509 70.396072 -1.800955 -4.010562 -0.431124 
-108.570816 158.018021 69.733177 -2.387329 -3.887402 -3.735772 
-105.188255 155.253586 69.246475 -2.692115 -3.190961 -4.147943 
-105.753494 154.855774 70.170776 -4.285164 -2.487413 -3.256886 
-106.132507 154.604309 70.930489 -5.124423 -1.165895 -2.724319 
-106.440804 154.167252 71.649681 -5.565905 -0.372252 -2.153440 
-106.721123 154.110397 72.549614 -5.769486 -0.647569 -1.330726 
-106.855324 154.451004 73.249954 -5.646134 0.268064 0.720179 
-106.416862 155.188629 73.937210 -4.319878 1.928874 3.213842 
-105.568756 155.784317 74.180161 -1.579468 2.379252 4.879796 
-104.337059 155.885712 74.167465 1.501501 1.312120 5.338375 
-103.334000 155.390060 73.508484 3.604472 -0.001308 4.498717 
-102.939972 154.908157 73.009453 3.369788 -0.891359 4.599995 
-102.062874 154.734360 72.530899 4.011463 -1.617046 3.676464 
-101.526779 154.672089 71.405121 5.316153 -1.897851 1.088441 
-101.774094 154.790894 69.860031 4.465977 -1.425110 -3.109490 
-102.941505 154.524033 69.127922 1.435893 -2.136388 -5.006410 
-104.082138 154.801315 69.163658 -1.298578 -3.027262 -4.991361 
-109.435181 158.640350 69.752441 -2.295263 -4.573680 -2.367651 
-111.137131 159.087463 69.828583 -0.260175 -5.665785 0.815178 
-112.664040 158.928558 69.869759 1.462082 -5.484475 1.330484 
-113.946602 158.319504 69.961067 2.532520 -5.348478 -0.399285 
-115.202232 157.665878 70.157448 2.405626 -5.446938 -0.552758 
-116.596405 157.158142 70.421265 1.086794 -5.789980 -0.768602 
-118.068970 157.016235 70.768784 0.437545 -5.903821 -0.445725 
-119.717957 156.814362 71.121109 -0.325392 -5.790387 0.502262 
-121.262840 157.301895 71.350990 -1.929245 -5.645470 0.502263 
-121.780884 157.492722 70.878410 -2.395513 -5.466579 0.230878 
-121.469131 157.235458 70.007927 -1.919400 -4.528723 0.249898 
-122.262405 157.670761 69.952629 -1.009602 -5.461548 1.466216 
-122.494049 157.349030 69.244705 -0.962050 -5.665925 1.241115 
-121.640572 157.046738 67.456589 -0.983991 -5.863932 -0.397669 
-120.753952 157.245285 65.579956 -0.001702 -5.457899 -2.070278 
-120.314224 158.187866 63.975079 1.251921 -5.313334 -2.250275 
-120.116203 158.808243 62.353149 2.146788 -5.196439 -1.861672 
-120.072433 159.413040 60.840778 1.909082 -5.076094 -2.384250 
-120.193504 160.308533 59.380692 0.377079 -4.654511 -3.605289 
-120.236954 161.601715 58.110817 -1.591862 -3.618243 -4.401959 
-120.189949 162.834824 57.096054 -3.231930 -3.523640 -3.195729 
-120.503212 163.786667 56.026318 -4.524433 -1.687522 -2.832531 
-120.060509 165.175888 55.775650 -4.691061 0.738522 -3.645322 
-119.591225 166.340286 55.338772 -4.516419 0.887435 -3.814242 
-118.962929 167.627335 55.090237 -4.417583 1.931270 -3.526338 
-119.135193 168.315704 55.808983 -4.450156 2.810846 -2.760152 
-118.204338 169.610062 55.889797 -3.918319 3.848264 -2.199618 
-116.933617 170.745041 56.055317 -2.981140 4.837135 -1.461174 
-115.294777 171.461945 56.246803 -2.763938 5.216088 -0.775757 
-29.325640 79.608322 2.464269 2.742664 2.123644 -4.812874 
-31.775333 78.822029 1.011125 1.905998 2.981871 -4.826135 
-34.367558 77.784698 -0.616452 1.187052 3.494208 -4.693240 
-37.155823 76.800850 -1.828207 0.058055 3.811701 -4.564639 
-40.373425 75.061104 -2.925722 -1.132081 3.843161 -4.410400 
-44.246807 72.704948 -3.519523 -2.677341 3.515373 -3.887645 
-47.913998 68.567543 -3.543014 -4.338517 2.521007 -3.064625 
-49.604744 67.088631 -0.534070 -5.339197 2.035752 -1.705668 
-50.491966 65.950897 1.841264 -5.572049 1.947362 -1.021496 
-51.960026 62.021599 1.477899 -5.608404 1.725757 -1.154817 
-52.827003 57.969025 1.068708 -5.844079 0.779624 -0.605105 
-53.017719 53.757439 1.162441 -5.845047 -0.069966 0.657568 
-52.678986 49.897415 0.567063 -5.837891 -0.639114 1.030326 
-52.486195 49.172863 1.697549 -5.921842 -0.295017 0.863816 
-51.907551 51.874687 5.448099 -5.747267 -0.222905 1.638489 
-51.023052 55.002678 8.007997 -5.689299 0.032291 1.813366 
-51.149700 51.209732 7.485926 -5.657678 -0.510590 1.867238 
-50.615295 47.679798 7.355452 -5.341867 -1.283938 2.370333 
-49.789593 47.518456 8.843978 -4.362946 -1.965667 3.361946 
-48.120247 43.515373 7.695941 -2.468121 -2.852796 4.615899 
-46.763157 41.033401 6.653738 -1.338560 -3.067685 4.957358 
-45.582947 38.716446 5.483214 0.222586 -2.998712 5.022421 
-44.722969 36.666046 3.957965 2.385862 -3.004364 4.550529 
-43.735981 36.628777 3.231147 3.111221 -3.040338 4.126024 
-42.322781 38.923050 3.846608 3.345328 -2.987194 3.981328 
-41.046364 41.451435 4.601576 3.303188 -3.003093 4.006387 
-39.892021 43.955238 5.598083 2.882060 -3.178520 4.178372 
-38.179119 47.796513 7.567520 1.646122 -3.626408 4.427103 
-35.331303 50.691231 9.521811 1.057950 -3.658523 4.605375 
-32.376019 53.150276 10.406607 2.197183 -3.536214 4.264082 
-29.542850 55.583839 10.438812 3.530284 -3.068357 3.703659 
-27.171797 58.429741 9.785475 4.632205 -2.193732 3.052423 
-25.768774 58.665909 7.356450 5.247847 -1.743200 2.237103 
-24.954000 59.040054 5.084474 5.686876 -1.286810 1.295424 
-24.252851 62.760132 4.706931 5.929660 -0.607178 0.418882 
-24.130297 66.487465 4.785497 5.937801 0.234566 -0.517605 
-24.469988 70.097069 5.270678 5.725765 0.980599 -1.442075 
-25.073675 73.737251 5.913442 5.571194 0.905801 -1.990962 
-25.661278 76.996040 5.324413 5.187049 0.685070 -2.848511 
-26.910717 78.905251 3.982227 4.112908 1.441199 -3.963217 
27.936844 77.424728 3.772339 -3.787796 2.881399 -3.576318 
26.158319 74.423958 3.876925 -4.770866 2.185544 -2.844185 
25.048723 70.939270 3.427629 -5.163382 1.833806 -2.441970 
24.067484 67.383484 2.871872 -5.379080 1.363596 -2.215423 
23.581722 63.452362 2.675503 -5.810068 -0.146715 -1.013461 
24.172920 59.428356 2.970801 -5.870919 -1.115627 0.024190 
25.192198 55.619781 3.549089 -5.608549 -1.895228 0.855903 
25.714575 55.310574 5.872472 -5.186964 -2.262932 1.795453 
27.202568 55.077599 8.501121 -4.298878 -2.937889 2.890735 
30.152178 52.343822 9.053442 -2.832655 -3.598753 3.775985 
33.303009 50.380672 8.811436 -1.399643 -3.871702 4.309164 
36.456604 47.477448 6.822279 -1.880800 -5.200375 5.728578 
39.222137 44.276020 5.341751 -2.654621 -3.356437 4.160830 
40.317200 41.593143 4.118730 -3.232011 -3.070748 4.014440 
41.428265 39.134949 3.183405 -3.432486 -3.011224 3.890173 
42.756134 36.553116 2.363161 -3.415190 -3.027692 3.892066 
44.163300 34.406971 1.910042 -3.280412 -2.947201 4.065680 
45.074795 34.538776 2.730326 -2.601532 -2.995147 4.455496 
45.843025 36.446072 4.234892 -0.352560 -2.856359 5.034636 
46.843170 39.001526 5.343028 1.460399 -2.895164 5.031905 
48.086452 41.425327 6.421240 2.352132 -2.936261 4.621137 
49.622070 43.877720 7.018942 4.001928 -2.298446 3.556331 
50.374260 44.175507 5.671418 5.155132 -1.597601 2.608581 
51.204502 47.756840 5.851108 5.479213 -1.086080 2.151188 
51.652264 50.738373 6.042616 6.579967 -0.675938 2.229373 
52.338825 48.540653 2.804320 5.864015 -0.392756 1.106069 
52.604240 45.608715 -1.041571 5.984356 -0.172857 0.187290 
52.609135 46.131813 -2.292265 5.901403 -0.677437 0.412440 
53.375977 50.183815 -1.167027 5.791876 -0.268419 0.075410 
52.805511 54.151947 -1.137460 5.748899 0.841873 -1.263896 
52.212231 58.337395 -0.914700 5.615544 1.152227 -1.726531 
51.405476 62.440407 -0.129154 5.498147 1.652053 -1.683409 
50.220871 63.563805 -2.629513 5.233192 1.824994 -2.189054 
48.045334 64.686356 -5.672247 4.399714 2.204746 -3.272571 
44.704060 69.232048 -5.661819 2.753559 3.058596 -4.260821 
40.836212 72.873703 -4.614881 0.908621 3.741805 -4.513171 
37.713593 74.465057 -3.182184 -0.588319 4.014783 -4.350825 
34.877628 75.596245 -1.422867 -1.226709 3.826800 -4.442261 
32.270454 76.202026 -0.053070 -1.907445 3.528168 -4.443726 
29.911036 77.788979 2.428264 -2.668739 3.390867 -4.130265 
114.997215 171.740677 57.137909 3.195376 5.010020 -0.284827 
116.630119 171.018875 57.019157 2.687755 5.328400 0.037642 
118.079376 170.109940 56.914986 3.745799 4.556576 -0.562300 
119.186249 168.976669 56.762825 4.517277 3.651693 -1.115164 
119.975197 167.683823 56.622082 4.962490 2.654495 -1.834859 
119.825752 166.983200 55.835007 4.731137 1.669943 -3.191455 
120.277969 165.721252 56.115501 4.754384 0.753464 -3.567883 
120.688591 164.540192 56.450386 4.831406 -0.444297 -3.215583 
120.566833 163.379791 57.271439 3.492518 -2.557560 -3.657872 
120.773849 162.166336 58.048920 1.927860 -2.937862 -4.837429 
120.997917 160.702118 58.879864 0.884080 -3.604011 -4.535263 
120.887871 159.570557 60.139256 -0.553822 -4.922724 -3.266255 
120.894974 158.890625 61.572311 -0.935713 -5.477366 -2.113689 
121.013809 158.376984 63.189720 -0.403884 -5.664497 -1.757269 
121.347214 157.831177 64.861595 0.766041 -5.418308 -2.240662 
122.012947 157.275848 66.565758 1.563666 -5.530498 -1.401395 
122.791397 157.317413 68.397888 1.756477 -5.704834 0.019101 
123.367798 157.606293 70.083076 1.024541 -5.441874 1.726316 
123.079391 157.881027 70.538483 0.415624 -5.499044 2.057762 
122.241570 157.809799 70.572418 2.125835 -6.474038 0.396749 
122.522614 157.797211 71.514084 2.709938 -5.298527 0.063900 
122.064156 157.665131 71.999580 2.227167 -5.543812 0.251655 
120.756508 157.258636 71.965347 1.087338 -5.694815 1.158484 
119.275757 157.012024 71.704826 0.108593 -5.772811 1.264028 
117.754372 156.995300 71.227539 -0.295191 -5.956687 0.046133 
116.301643 157.191345 70.805580 -1.563469 -5.736908 -0.258576 
114.922691 157.800766 70.523537 -2.616160 -5.390752 -0.086800 
113.657219 158.448990 70.302811 -2.640108 -5.359252 0.375156 
112.299049 159.022415 70.288589 -1.006365 -5.701536 0.459884 
110.750168 158.960373 70.236320 1.579052 -4.714372 -2.352589 
109.313210 158.144272 69.943001 2.612024 -3.326316 -4.236318 
105.006104 154.607880 69.587677 2.742394 -2.744504 -4.419109 
103.961250 154.262436 69.405067 1.090043 -2.025289 -5.364748 
102.752861 154.043777 69.518112 -2.420788 -2.033058 -4.720559 
101.661049 154.110016 70.740959 -4.721457 -2.653855 -0.748940 
102.135002 154.168930 71.906410 -4.775912 -2.697950 2.399116 
102.416008 154.426270 72.693146 -4.244223 -1.222631 3.500710 
103.033920 154.423721 73.299744 -4.723026 0.865092 3.536191 
103.398216 154.897217 73.705910 -4.037942 1.374651 3.972179 
104.477463 155.293732 74.256752 -1.795991 1.756850 5.203146 
105.617508 155.232254 74.441933 1.319824 2.026445 5.186003 
106.413361 154.590988 74.213829 4.225800 1.424206 3.593488 
106.839783 154.187561 73.425453 5.660191 0.024195 0.903438 
106.721970 153.824890 72.759033 5.837603 -1.003209 -0.874570 
106.512428 153.568771 72.038383 5.597977 -0.892952 -1.883240 
106.169220 153.807770 71.167595 4.971405 -1.024169 -3.078315 
105.658707 154.306793 70.381813 4.227036 -1.729878 -3.802551 
110.385147 158.006165 70.763412 1.460158 -3.871733 0.024293 
111.143318 158.596970 71.515732 -1.300133 -4.297834 3.774254 
112.044281 158.865234 72.208672 -2.508013 -2.662489 4.516058 
112.970833 159.117081 72.847694 -3.101884 -1.115550 4.955365 
113.834312 159.421326 73.431152 -3.503826 -1.101143 4.715302 
114.506134 159.733307 74.146904 -4.099464 -1.873232 3.912164 
114.589973 160.603149 74.767303 -4.078014 -2.372607 3.654410 
114.718071 161.479660 75.378807 -5.491057 -0.625309 5.508272 
114.546463 162.680435 75.095779 -3.735871 1.778063 4.109964 
114.974373 164.016113 74.327621 -1.988149 3.851189 3.985042 
115.272018 164.902084 73.483223 -0.910644 4.602712 3.683144 
115.286324 165.491425 72.494904 -0.157075 5.000672 3.196659 
115.144676 166.226044 71.576263 1.057315 4.764035 3.286163 
114.958069 166.984772 70.553688 2.187265 4.669860 2.775254 
114.696747 167.637268 69.385941 2.529372 4.959868 2.175419 
114.513786 168.298126 68.100777 0.393944 4.224066 3.554483 
114.491791 169.504227 67.208527 -0.184608 4.288780 3.995599 
114.422401 170.354279 65.963837 2.255394 4.658687 2.096794 
114.013443 171.071762 64.625008 2.610543 4.269257 2.828886 
114.624962 171.296921 64.238312 1.881106 4.255029 3.448588 
114.999832 171.303207 63.812553 3.248010 4.531773 1.460258 
114.514908 172.200897 62.463455 3.192099 4.367109 1.513052 
113.725197 172.776291 60.949318 3.818010 4.519521 -0.153845 
113.273796 173.290710 59.417336 3.636164 4.733834 0.571516 
113.339722 173.300171 58.720573 3.838542 4.583969 0.431685 
113.456879 173.208237 58.224804 4.086823 4.364789 0.158421 
114.538216 172.225372 58.640045 3.962339 4.487379 -0.286065 
114.690697 172.013260 58.022732 3.752470 4.639533 -0.354498 
-114.997215 171.740677 57.137909 -3.121262 5.070454 -0.189805 
-114.690681 172.013245 58.022724 -3.770041 4.636148 -0.381584 
-114.538200 172.225342 58.640038 -4.018892 4.430325 -0.353863 
-113.456871 173.208221 58.224800 -4.084666 4.374092 0.072538 
-113.339722 173.300171 58.720573 -3.849443 4.570941 0.488616 
-113.273781 173.290680 59.417328 -3.627369 4.737596 0.600536 
-113.725197 172.776291 60.949318 -3.818027 4.519516 -0.153877 
-114.514900 172.200882 62.463451 -3.192094 4.367124 1.513041 
-114.999832 171.303207 63.812553 -3.008320 4.387912 2.004787 
-114.625023 171.297012 64.238342 -2.337220 4.264043 2.963240 
-114.013435 171.071747 64.625000 -2.394324 4.403598 2.769296 
-114.422455 170.354355 65.963860 -2.255263 4.658583 2.096673 
-114.491783 169.504211 67.208519 0.184741 4.288694 3.995763 
-114.513779 168.298111 68.100769 -0.393975 4.224072 3.554481 
-114.696732 167.637253 69.385933 -2.529366 4.959867 2.175426 
-114.958061 166.984772 70.553688 -2.187304 4.669875 2.775204 
-115.144676 166.226044 71.576263 -1.057283 4.763995 3.286185 
-115.286316 165.491409 72.494896 0.157099 5.000670 3.196643 
-115.272018 164.902084 73.483223 0.910681 4.602707 3.683130 
-114.974365 164.016098 74.327614 1.988182 3.851173 3.985044 
-114.546455 162.680420 75.095772 3.735881 1.778062 4.109961 
-114.718071 161.479660 75.378807 5.631639 -0.795407 5.308833 
-114.589973 160.603149 74.767303 4.032543 -2.094496 3.869650 
-114.506126 159.733292 74.146896 4.034580 -2.052070 3.872129 
-113.834305 159.421310 73.431145 3.503820 -1.101137 4.715308 
-112.970833 159.117081 72.847694 3.101888 -1.115545 4.955364 
-112.044281 158.865234 72.208672 2.508007 -2.662502 4.516046 
-111.143318 158.596970 71.515732 1.300138 -4.297847 3.774253 
-110.385147 158.006165 70.763412 -1.460155 -3.871752 0.024309 
-109.313210 158.144272 69.943001 -2.612026 -3.326343 -4.236300 
-105.006096 154.607864 69.587669 -2.742385 -2.744489 -4.419118 
-105.658699 154.306778 70.381805 -4.227034 -1.729881 -3.802548 
-106.169220 153.807770 71.167595 -4.971416 -1.024165 -3.078297 
-106.512421 153.568756 72.038376 -5.597978 -0.892934 -1.883254 
-106.721970 153.824890 72.759033 -5.837602 -1.003209 -0.874559 
-106.839775 154.187546 73.425446 -5.660191 0.024189 0.903454 
-106.413353 154.590973 74.213821 -4.222881 1.373162 3.618534 
-105.617500 155.232239 74.441925 -1.304622 2.210443 5.109621 
-104.477455 155.293716 74.256744 1.746823 1.905154 5.183202 
-103.398216 154.897217 73.705910 4.080347 1.130827 4.014575 
-103.033920 154.423721 73.299744 4.711654 0.827679 3.565077 
-102.416000 154.426254 72.693138 4.244231 -1.222644 3.500677 
-102.135002 154.168930 71.906410 4.775910 -2.697963 2.399103 
-101.661049 154.110016 70.740959 4.721477 -2.653840 -0.748942 
-102.752853 154.043762 69.518105 2.420815 -2.032972 -4.720570 
-103.961243 154.262421 69.405060 -1.090047 -2.025241 -5.364778 
-110.750160 158.960358 70.236313 -1.579083 -4.714384 -2.352599 
-112.299049 159.022415 70.288589 1.006351 -5.701521 0.459904 
-113.657219 158.448990 70.302811 2.640112 -5.359245 0.375239 
-114.922691 157.800766 70.523537 2.616154 -5.390752 -0.086821 
-116.301643 157.191345 70.805580 1.563470 -5.736911 -0.258581 
-117.754372 156.995300 71.227539 0.295180 -5.956692 0.046146 
-119.275757 157.012024 71.704826 -0.108572 -5.772817 1.264028 
-120.756500 157.258621 71.965340 -1.087322 -5.694818 1.158478 
-122.064140 157.665115 71.999573 -2.329256 -5.493023 0.304017 
-122.522614 157.797211 71.514084 -2.607899 -5.349297 0.011504 
-122.241570 157.809799 70.572418 -2.125830 -6.474028 0.396764 
-123.079384 157.881027 70.538483 -0.620653 -5.446589 2.156069 
-123.367790 157.606277 70.083069 -0.819487 -5.494331 1.627998 
-122.791389 157.317398 68.397881 -1.756467 -5.704836 0.019108 
-122.012939 157.275833 66.565750 -1.563646 -5.530502 -1.401397 
-121.347214 157.831177 64.861595 -0.766003 -5.418321 -2.240652 
-121.013802 158.376968 63.189716 0.403925 -5.664502 -1.757249 
-120.894966 158.890610 61.572308 0.935743 -5.477368 -2.113676 
-120.887863 159.570541 60.139252 0.553812 -4.922718 -3.266262 
-120.997910 160.702103 58.879860 -0.884101 -3.604008 -4.535263 
-120.773849 162.166336 58.048920 -1.927857 -2.937864 -4.837428 
-120.566826 163.379776 57.271435 -3.492517 -2.557568 -3.657867 
-120.688591 164.540192 56.450386 -4.831408 -0.444285 -3.215580 
-120.277962 165.721237 56.115498 -4.754380 0.753465 -3.567889 
-119.825745 166.983185 55.835003 -4.831057 1.626891 -3.044008 
-119.975189 167.683807 56.622078 -4.862546 2.697572 -1.982331 
-119.186241 168.976654 56.762821 -4.517282 3.651686 -1.115151 
-118.079369 170.109924 56.914982 -3.745818 4.556565 -0.562276 
-116.630119 171.018875 57.019157 -2.687773 5.328386 0.037680 
-29.586426 78.592094 1.808491 2.808763 2.533402 -4.614133 
-32.082119 76.682755 -0.607094 2.127058 3.113473 -4.641107 
-34.761814 76.126877 -2.061873 1.258261 3.369871 -4.772030 
-37.629341 74.725342 -3.554392 0.229255 3.479091 -4.828254 
-40.839634 72.863602 -4.614380 -1.080454 3.493834 -4.693340 
-44.703259 69.229042 -5.659339 -2.760625 3.065027 -4.251772 
-48.043438 64.685616 -5.670352 -4.365515 2.192839 -3.347615 
-50.220871 63.563805 -2.629513 -5.259084 1.756491 -2.223550 
-51.405476 62.440407 -0.129154 -5.503959 1.743319 -1.573890 
-52.212231 58.337395 -0.914700 -5.615544 1.152227 -1.726531 
-52.805511 54.151947 -1.137460 -5.748899 0.841873 -1.263896 
-53.375977 50.183815 -1.167027 -5.791876 -0.268419 0.075410 
-52.609135 46.131813 -2.292265 -5.902958 -0.654354 0.305837 
-52.604240 45.608715 -1.041571 -5.982802 -0.195940 0.293894 
-52.338825 48.540653 2.804320 -5.864015 -0.392756 1.106069 
-51.652264 50.738373 6.042616 -6.579967 -0.675938 2.229373 
-51.204502 47.756840 5.851108 -5.479213 -1.086080 2.151188 
-50.374260 44.175507 5.671418 -5.122484 -1.657604 2.630841 
-49.622070 43.877720 7.018942 -4.034576 -2.238443 3.534070 
-48.086452 41.425327 6.421240 -2.352132 -2.936261 4.621137 
-46.843170 39.001526 5.343028 -1.460399 -2.895164 5.031905 
-45.843025 36.446072 4.234892 0.352560 -2.856359 5.034636 
-45.074795 34.538776 2.730326 2.619321 -2.980934 4.451999 
-44.163300 34.406971 1.910042 3.262624 -2.961414 4.069175 
-42.756134 36.553116 2.363161 3.415191 -3.027693 3.892066 
-41.428265 39.134949 3.183405 3.432486 -3.011225 3.890173 
-40.317200 41.593143 4.118730 3.232011 -3.070748 4.014440 
-39.222137 44.276020 5.341751 2.654621 -3.356438 4.160830 
-36.456604 47.477448 6.822279 2.101995 -5.275486 5.563536 
-33.401863 50.524750 8.700441 1.896645 -3.722079 4.235511 
-30.387798 52.696526 8.671731 3.101255 -3.315601 3.887124 
-27.604633 55.425201 8.170820 4.305014 -2.581703 3.196521 
-26.133936 55.481674 5.757787 5.090848 -2.105032 2.219418 
-25.411243 55.704590 3.450763 5.661714 -1.510745 1.170338 
-24.549353 59.517128 2.945625 5.900648 -0.884780 0.370184 
-24.208223 63.463661 2.814873 5.947214 -0.019537 -0.480337 
-24.493883 67.258690 3.053030 5.754560 0.885191 -1.356222 
-25.141918 70.802734 3.513493 5.537210 1.320939 -1.878213 
-25.903271 74.409760 3.835667 5.178281 1.313680 -2.609753 
-27.315870 78.110336 3.177099 4.123025 1.674946 -3.867136 
27.848909 75.264359 1.979402 -3.743827 2.794211 -3.662274 
26.017351 71.568504 1.682578 -4.757160 2.115039 -2.900402 
25.159807 68.264687 1.255761 -5.161900 1.631797 -2.582038 
24.242695 64.429947 0.885985 -5.490293 0.811658 -2.098633 
24.271862 60.196358 0.939238 -5.895959 -0.503278 -0.822978 
24.776613 56.056057 1.325280 -5.777884 -1.425258 0.066476 
26.190823 52.337399 1.991845 -5.355887 -2.500201 0.850404 
26.849125 52.101112 4.272737 -4.947763 -2.783552 1.765834 
28.157959 52.091454 6.750457 -3.963160 -3.347580 2.894197 
31.415621 49.741470 7.342083 -2.463016 -3.953054 3.718845 
34.235420 48.469852 7.371141 -1.260463 -3.502413 3.309114 
38.189560 44.266499 4.530537 -2.059463 -2.899690 3.463929 
39.678841 41.812840 3.776138 -3.263806 -3.111124 3.956588 
40.731342 39.231049 2.659682 -3.370821 -3.067400 3.900686 
41.878780 36.621613 1.600623 -3.509829 -3.021401 3.813977 
43.189518 34.183186 0.893609 -3.449858 -2.891029 3.963849 
44.653416 31.815975 0.485797 -3.132256 -2.955410 4.166364 
45.532272 31.911594 1.222634 -2.578106 -3.086966 4.412337 
46.103100 34.175697 2.986571 -0.466128 -2.925023 4.949778 
47.037189 36.835285 4.168127 1.715620 -2.694742 5.032694 
48.051716 39.335289 5.161710 2.608153 -2.787683 4.555535 
49.410446 41.883564 5.795104 3.883774 -2.452425 3.702545 
50.308998 42.215450 4.605550 4.974796 -1.874692 2.754974 
51.212006 44.070175 4.133918 5.447196 -1.292331 2.002389 
51.677448 47.576931 4.596051 5.583279 -1.041772 1.888061 
52.077835 47.859718 3.520844 5.711355 -0.815513 1.619968 
52.517654 44.969841 -0.041802 5.894977 -0.509239 0.796256 
52.549709 43.594849 -2.630318 5.983941 -0.033872 -0.207606 
52.451267 44.153904 -3.873350 5.970033 -0.289295 -0.331042 
52.743988 46.603470 -4.140859 5.838487 -0.379720 -0.631831 
52.714752 50.733150 -3.705547 5.624929 0.795524 -1.785548 
51.924500 54.770844 -3.295821 5.491069 1.090741 -2.139273 
51.621624 58.645958 -2.396366 5.473730 1.145875 -2.148807 
50.342197 59.888107 -4.745460 5.179868 1.451200 -2.600636 
48.205593 60.835739 -7.720417 4.479184 1.904354 -3.432477 
45.139614 65.511551 -8.089946 3.056449 2.798212 -4.224933 
41.354370 69.496620 -6.951562 1.211369 3.421128 -4.701991 
38.006790 72.392166 -4.988495 -0.671921 3.666292 -4.609296 
35.319065 73.818893 -2.983111 -1.352171 3.671776 -4.534572 
32.640156 74.572792 -1.479080 -1.963996 3.501774 -4.417386 
30.006840 75.595551 0.628060 -2.681325 3.127123 -4.336653 
116.152657 171.034943 57.948231 2.840101 5.236899 0.435744 
117.700752 170.298752 57.883595 3.279858 4.935215 0.448426 
118.844910 169.248398 57.853352 4.305750 4.160344 -0.082852 
119.789673 168.158371 57.687149 4.823846 3.481819 -0.441105 
120.527107 166.959671 57.444618 5.002334 2.837660 -1.350390 
120.505386 166.339706 56.615322 5.005442 1.589119 -2.779148 
120.905083 165.074860 56.821751 4.893218 0.532289 -3.389802 
121.177063 163.856949 57.256622 4.069029 -0.965288 -3.966976 
121.429123 162.532043 57.782028 2.399278 -2.425953 -4.813159 
121.544502 161.251038 58.726955 1.912147 -3.001264 -4.796321 
121.656693 159.993607 59.640808 0.810977 -4.094518 -4.121594 
121.676193 159.153412 60.896347 -0.125680 -5.316162 -2.699597 
121.797012 158.567352 62.450138 0.095321 -5.732209 -1.662578 
121.980560 158.165863 64.172142 1.062616 -5.616649 -1.641662 
122.401009 157.680191 65.780594 2.175917 -5.167934 -2.013425 
123.129318 157.429474 67.532715 2.516750 -5.296001 -0.830872 
123.606934 157.676849 69.193878 2.283908 -5.507500 0.288392 
124.064262 158.080643 70.670776 2.161979 -4.832067 2.390862 
123.841293 158.310196 71.149254 1.905911 -4.847064 2.679700 
123.052803 157.956711 70.978844 1.631924 -5.528575 1.175483 
122.881416 157.969711 71.295555 2.126291 -5.308378 0.799998 
123.242188 158.284561 72.017563 3.034806 -4.808545 -0.916790 
122.763283 158.045822 72.543648 2.418358 -6.662311 -1.815700 
121.610947 157.454483 72.645699 1.390811 -5.600194 0.834766 
120.284363 157.390549 72.546829 0.209207 -5.621925 2.019086 
118.900200 157.117920 72.167709 0.361557 -5.728448 1.486695 
117.437225 156.994629 71.588493 -0.398860 -5.921986 0.302757 
115.962852 157.304337 71.149391 -2.043770 -5.594907 0.081425 
114.598282 157.987885 70.865822 -2.864795 -5.251158 0.314468 
113.369507 158.717484 70.673149 -2.332280 -5.438266 0.355126 
111.914917 159.034149 70.703461 0.440772 -5.364141 -1.505791 
110.511871 158.557846 70.449661 2.632807 -3.764358 -3.780124 
104.921173 154.158051 69.810493 3.087866 -1.647260 -4.734955 
103.778877 153.463425 69.352364 0.445260 -1.828967 -5.186467 
102.476067 153.372559 70.015961 -3.557512 -3.128566 -2.977452 
102.120529 153.619537 71.352615 -4.870775 -2.990298 0.998172 
102.408722 153.881256 72.161453 -5.183527 -1.852052 2.194290 
102.669571 153.950195 72.893608 -5.138155 -0.102585 2.726782 
103.163017 153.814651 73.693558 -5.152750 0.988866 2.869622 
103.527657 154.341858 74.127663 -3.954613 2.081490 3.596619 
104.596657 154.761673 74.569939 -1.477531 2.810244 4.849025 
105.671204 154.571259 74.692543 1.415532 2.283928 5.061443 
106.350906 153.840668 74.553902 4.183405 1.005186 3.768126 
106.751671 153.662155 73.711945 5.638785 -0.381967 1.156369 
106.689278 153.573486 72.941299 5.853702 -1.140865 -0.608232 
106.518410 153.259171 72.252869 5.617390 -1.352687 -1.503546 
106.205048 153.140839 71.491531 4.899808 -1.588903 -2.898403 
105.640381 153.588394 70.625534 4.143514 -1.570994 -4.013104 
111.330063 158.476562 71.210823 0.957440 -4.541729 -0.549571 
112.058220 158.619095 71.963776 -1.560799 -4.849078 2.804749 
112.882362 158.780258 72.652779 -2.666671 -3.092774 4.192399 
113.691933 158.964890 73.251785 -3.111797 -1.785858 4.743199 
114.372864 159.238785 73.802322 -3.876024 -1.597282 4.224135 
115.118767 159.218063 74.713707 -5.796589 -2.682923 4.777669 
115.297684 160.321167 75.286118 -4.484935 -2.094708 3.341853 
115.241829 161.029663 75.968246 -4.462527 -1.162780 3.581550 
114.999580 162.561188 75.565033 -3.284782 1.383244 3.387438 
115.295357 163.780106 74.985458 -2.721792 3.910197 3.281207 
115.856972 164.609634 73.992043 -0.798463 4.682924 3.578196 
115.994614 165.342957 73.163078 0.145978 5.019611 2.978076 
115.897614 165.739090 72.104225 1.578273 5.115244 1.930254 
115.695068 166.271835 71.052261 2.804583 4.754991 2.215685 
115.481239 166.913956 69.937668 2.754771 4.703881 2.425940 
115.257103 167.653427 68.814072 0.359265 4.024017 3.683889 
115.222702 168.842484 67.959900 -0.257541 4.083887 4.084323 
115.284309 169.721527 66.730431 2.536876 4.486094 1.457298 
114.792717 170.053909 65.251976 3.156213 4.369681 1.775392 
115.363731 170.168396 64.748695 2.158101 3.907034 3.967334 
115.923950 170.430405 64.432861 3.133481 3.997884 2.063633 
115.144470 171.012222 63.253738 4.100347 4.089095 0.751576 
114.774734 172.131546 61.994251 3.753935 4.347220 0.968919 
114.015610 172.599289 60.306900 3.584589 4.751833 -0.020443 
114.241379 172.486053 59.615135 3.859469 4.567685 0.216564 
114.400414 172.366684 59.109970 3.916095 4.537884 0.084273 
115.528564 171.411194 59.541420 3.686306 4.725793 0.042795 
115.805092 171.198364 58.794632 3.335249 4.941793 0.167956 
-116.152649 171.034927 57.948227 -2.746166 5.283917 0.558644 
-115.805084 171.198349 58.794628 -3.386931 4.928553 0.091298 
-115.528549 171.411163 59.541412 -3.728524 4.692039 -0.003406 
-114.400406 172.366669 59.109966 -3.892233 4.554342 0.140598 
-114.241371 172.486038 59.615131 -3.936800 4.500040 -0.023845 
-114.015602 172.599274 60.306896 -3.531173 4.802979 0.163592 
-114.774719 172.131531 61.994244 -3.753961 4.347213 0.968887 
-115.144470 171.012222 63.253738 -4.100372 4.089082 0.751509 
-115.923950 170.430405 64.432861 -3.145031 3.956605 2.096323 
-115.363724 170.168381 64.748688 -2.208552 4.095447 3.724003 
-114.792709 170.053894 65.251968 -3.094399 4.222262 1.985854 
-115.284355 169.721588 66.730453 -2.536878 4.485867 1.457279 
-115.222694 168.842468 67.959892 0.257559 4.083840 4.084411 
