15.779886 -1.182783 -26.016003 0.257900 0.433100 -0.863600 
12.974244 -0.803554 -26.320307 0.120200 0.515100 -0.848600 
16.326752 0.569788 -24.663511 0.191200 0.687000 -0.701000 
42.069851 -18.440912 -6.954046 0.610100 0.118900 -0.783300 
43.417362 -2.038423 7.828793 0.961000 0.160400 0.225100 
49.289967 -27.865444 5.060671 0.678500 -0.722900 0.130700 
-6.453215 -5.389661 -18.580286 -0.289800 -0.269200 -0.918400 
-4.460670 -8.411651 -18.825274 -0.782700 -0.260700 -0.565100 
-14.448120 28.550140 6.876472 0.922700 0.270800 0.274200 
-14.074176 26.249031 8.767593 0.830500 0.458500 0.316100 
-32.104218 -9.758905 10.606642 -0.756000 -0.575900 0.311000 
-33.302437 -7.827560 10.778716 -0.863900 -0.386000 0.323500 
-32.222240 -10.412497 8.558439 -0.795200 -0.562100 0.227200 
-8.338709 -3.451249 -18.705536 -0.164300 -0.207800 -0.964300 
-5.110584 -5.339576 -18.975445 -0.512900 -0.243100 -0.823300 
48.419289 -27.925123 7.291032 0.630100 -0.688500 0.359100 
1.243027 -36.437084 -21.222408 0.056900 -0.982800 -0.175700 
-3.123221 -36.382030 -21.461401 -0.034800 -0.999100 -0.025100 
-3.077195 -36.365360 -23.262865 -0.076200 -0.904900 -0.418600 
28.293486 -28.228640 -18.698536 0.528500 -0.384500 -0.756900 
-21.303661 41.463402 -20.977499 0.811000 0.548800 0.202600 
-4.003308 -6.107760 -20.011076 -0.775100 -0.006800 -0.631700 
-24.094007 48.109673 -32.649223 0.559700 0.733800 0.385000 
-21.653069 51.192474 -40.667957 0.659200 0.747300 0.083400 
-22.054817 50.782364 -38.959656 0.641100 0.656100 0.398100 
-22.034821 35.340237 -6.651985 0.701200 0.710600 -0.057100 
-26.749584 29.679510 -12.021974 -0.586900 -0.741800 -0.324500 
-29.135908 49.990074 -33.700554 -0.510400 0.795700 0.326000 
-10.379230 20.819670 -4.480569 0.393500 0.879800 -0.266500 
-10.225061 22.217371 1.257746 0.744300 0.667200 -0.026600 
50.929974 -13.318998 4.853900 0.561000 0.796800 0.224300 
49.437069 -13.648943 7.399022 0.306600 0.802500 0.511900 
-26.989992 37.083332 8.021896 -0.088300 0.990300 0.106900 
-26.681881 36.227871 12.323590 -0.076500 0.955800 0.283700 
1.269673 53.107662 -13.554358 -0.588100 0.799000 -0.124800 
-20.438183 35.910877 13.072709 0.146100 0.935900 0.320500 
-23.869715 36.196819 12.710526 -0.000100 0.951700 0.307000 
50.354530 -12.981743 0.972063 0.372300 0.914900 -0.156100 
49.773071 -12.632327 3.704427 0.285700 0.957500 0.038700 
49.231331 -12.798985 5.777080 0.207300 0.933400 0.292700 
47.290440 -13.236192 6.978380 -0.091900 0.907900 0.409000 
-3.592325 49.053165 -7.666001 -0.222700 0.796000 0.562700 
47.743717 -12.431279 2.189493 0.064100 0.996900 -0.043800 
47.135090 -12.490549 4.270408 -0.135200 0.986400 0.093200 
47.869183 -12.790944 0.009117 0.058000 0.967000 -0.247900 
45.745548 -12.910152 4.767051 0.216900 0.939700 0.264400 
-3.669209 48.127491 -13.417234 -0.617900 0.422200 -0.663200 
45.289577 -12.314446 2.028285 0.642400 0.765900 -0.028300 
-2.807981 8.850497 -16.794563 0.019300 0.413000 -0.910500 
-20.448252 37.075432 5.390945 0.096800 0.995100 0.020000 
-2.275865 19.305393 0.578330 0.263900 0.964100 -0.028900 
-19.732464 -33.356201 8.051579 -0.840400 0.428400 -0.331900 
-34.160805 35.404556 2.162963 -0.419000 0.890400 -0.177800 
-19.851185 36.888668 8.080523 0.161700 0.981000 0.107100 
-22.622395 36.862740 10.180853 0.039200 0.980700 0.191600 
-7.227199 19.240990 6.334634 0.045300 0.911300 0.409200 
-4.359564 18.757601 -7.322284 0.343800 0.876700 -0.336300 
-3.435455 19.177963 -4.401778 0.346300 0.924700 -0.158200 
-1.504649 18.338018 -4.770712 0.176500 0.961800 -0.209000 
-25.617479 36.890465 -1.286215 -0.013000 0.998900 -0.045200 
-9.454488 45.203739 -9.811290 -0.681000 0.526700 -0.508800 
-22.836185 36.665886 -1.135999 0.093200 0.987400 -0.128000 
-23.846893 37.157425 3.136079 0.019200 0.998600 -0.049300 
-20.163557 36.962940 1.230185 -0.024700 0.999100 -0.034100 
-4.912715 20.135822 0.480374 0.261100 0.965200 0.012800 
-8.936946 21.041325 0.132326 0.404700 0.913900 -0.029400 
-5.701685 19.935471 3.762806 0.177400 0.961300 0.210500 
-23.141682 42.334961 -17.832161 0.606100 0.727400 0.321700 
-5.742455 18.006332 9.158402 0.045400 0.878800 0.474900 
-38.735542 15.133659 10.652053 -0.935800 -0.303900 0.178800 
-21.301441 -30.414890 17.354675 -0.783100 0.520200 0.340600 
-13.924564 -17.985781 15.125096 -0.457000 -0.596000 0.660300 
-13.963326 -20.216299 13.431230 -0.888300 -0.179700 0.422500 
-28.413082 51.187656 -36.870934 -0.705700 0.619200 -0.344200 
-29.730869 49.777973 -35.562359 -0.916300 0.147100 -0.372400 
-9.005939 20.181438 4.675640 0.517500 0.798600 0.307100 
-9.750312 19.110458 7.047417 0.697100 0.572000 0.432200 
-24.902939 35.321865 14.889719 -0.025000 0.901100 0.432800 
-18.928024 37.210739 -0.677113 -0.388000 0.915000 0.110200 
-22.206982 51.465622 -41.284863 0.176100 0.756300 -0.630000 
-24.297276 37.250984 7.168919 0.005200 0.998500 0.054600 
-22.370770 35.812637 -4.881391 0.226800 0.952400 -0.203700 
15.590437 4.031516 21.945827 0.007700 0.943700 0.330700 
-28.500690 39.333080 -11.692896 -0.710500 0.612100 0.347100 
-21.048965 36.023335 -3.645883 -0.007500 0.930800 -0.365500 
0.263214 45.349655 -16.331957 -0.360500 -0.167200 -0.917600 
-36.666439 25.373701 10.141953 -0.986600 0.120500 0.110000 
-25.311916 34.331825 16.601633 0.005600 0.821600 0.569900 
-19.468708 36.878555 -2.829079 -0.558800 0.801000 -0.214800 
-21.913794 -32.745361 18.217188 -0.879700 0.281000 0.383500 
-22.471636 -31.966627 15.759553 -0.917800 0.378500 0.119700 
-23.261051 -34.102654 14.548042 -0.989400 0.136500 0.049400 
1.574401 18.305901 -5.352400 -0.130400 0.954400 -0.268400 
-6.692309 20.439869 -2.408937 0.223900 0.970000 -0.094500 
-22.054127 -31.494583 13.540410 -0.852400 0.507700 -0.124600 
35.001675 12.792576 11.781290 0.650900 0.592600 0.474400 
1.335493 -3.195529 -26.479076 -0.520300 0.493900 -0.696600 
0.642973 -5.821599 -27.246769 -0.552900 0.222800 -0.802900 
-0.677279 -5.293214 -25.629787 -0.777600 0.292700 -0.556400 
38.482639 11.067324 0.865351 0.813200 0.581800 -0.013900 
-34.930199 4.111781 9.818543 -0.849400 0.253400 0.462900 
-35.621868 4.701964 7.782498 -0.901500 0.305800 0.306200 
36.962418 12.613002 7.649329 0.760300 0.622200 0.186500 
-30.656513 43.890121 -26.733442 -0.990200 -0.136000 -0.030600 
37.019562 12.915978 4.879057 0.771600 0.634100 0.049400 
-9.164417 -23.135187 -12.270994 -0.081600 -0.190300 -0.978300 
-7.995973 -19.546892 -13.117990 0.041400 -0.337700 -0.940300 
-17.690933 38.736305 -2.932435 -0.681100 0.732000 0.017000 
37.416969 10.630578 -6.774107 0.762400 0.569900 -0.306500 
32.768967 13.685324 13.091047 0.535500 0.606200 0.588000 
32.510303 15.559053 10.955091 0.568100 0.712200 0.412300 
-23.472467 -31.345577 0.714834 -0.593700 0.565200 0.572700 
-23.562443 -30.023193 -0.872232 -0.553800 0.771800 0.312500 
25.702381 2.895250 -19.135471 0.048400 0.336500 -0.940400 
24.941534 5.003039 -18.377304 0.014200 0.506700 -0.862000 
28.017834 3.655412 -18.706093 0.233700 0.338100 -0.911600 
36.547829 13.619488 0.147733 0.748200 0.662900 -0.028000 
35.088173 14.789353 7.063333 0.697300 0.705000 0.129200 
34.026859 15.228296 9.297830 0.621300 0.728800 0.287800 
36.513397 13.404459 -2.762201 0.751700 0.643800 -0.143300 
34.373329 15.816914 1.949882 0.673500 0.739200 0.006700 
32.714275 16.852425 6.809150 0.609800 0.780300 0.138900 
35.322868 12.796109 -7.336847 0.654100 0.652600 -0.382300 
35.722561 13.821740 -4.418411 0.720000 0.644200 -0.257900 
-34.340454 5.077464 -4.593582 -0.895800 0.236700 -0.376100 
-23.851181 52.004044 -40.344337 -0.077400 0.921500 -0.380500 
-24.060270 51.507404 -40.719337 -0.491300 0.300100 -0.817600 
34.299767 15.635376 -1.762666 0.645000 0.754400 -0.121200 
30.823717 17.591398 9.494768 0.516000 0.796900 0.314200 
-11.552596 21.802832 -4.415169 0.703400 0.584200 -0.404900 
-37.825798 12.506919 18.655369 -0.798100 -0.561800 0.217700 
29.036751 18.163185 10.114088 0.389500 0.841200 0.374900 
15.530605 3.133125 24.480125 0.031000 0.875300 0.482600 
32.027538 17.719208 0.559412 0.577500 0.814600 -0.053100 
31.221594 18.283276 3.881042 0.558600 0.828300 0.041700 
29.723545 18.854637 7.321856 0.470700 0.861700 0.189300 
26.920103 18.393583 11.625632 0.352400 0.802700 0.481000 
32.257004 16.206940 -5.451406 0.572200 0.761400 -0.304600 
31.369417 17.737255 -2.503846 0.561400 0.810900 -0.164700 
28.228775 19.887892 5.242233 0.431200 0.897200 0.095200 
27.010399 19.760723 8.329177 0.399100 0.876600 0.268800 
29.463306 18.457243 -4.769830 0.490300 0.823800 -0.284500 
-8.241660 5.850949 -17.929483 0.019600 0.221000 -0.975100 
-34.267906 27.263826 -3.941204 -0.739600 0.396000 -0.544200 
-2.673707 -22.211481 -12.692566 -0.776400 -0.241500 -0.582100 
-3.643506 -19.649355 -13.261605 -0.473200 -0.435200 -0.766000 
-17.510338 -22.329010 -2.479181 -0.844100 -0.536100 -0.010000 
2.947669 0.180235 22.985598 -0.543000 0.644100 0.538800 
-22.266552 -34.961914 18.435318 -0.855900 -0.324100 0.403000 
-30.337181 48.120155 -33.394253 -0.974000 -0.005600 -0.226400 
-16.440552 -20.877144 8.381653 -0.326500 -0.822700 0.465300 
-18.079117 -20.538187 8.133907 -0.267300 -0.893100 0.361900 
5.887099 1.967442 22.679039 -0.369200 0.801000 0.471200 
-2.577797 -27.325600 20.084648 -0.490700 0.730700 0.474500 
-3.850871 -29.790926 21.824064 -0.658400 0.528900 0.535400 
-2.404697 -26.252205 18.175184 -0.349000 0.800100 0.487800 
-0.683453 -25.170584 17.152662 -0.274200 0.648700 0.709900 
-26.465584 -1.595430 19.467142 -0.420600 0.029200 0.906700 
-14.202058 -25.046835 -9.872561 -0.584500 -0.079300 -0.807500 
-11.061298 -25.746687 -11.327717 -0.327300 -0.075500 -0.941900 
-6.631469 44.702835 -12.584514 -0.584900 0.239900 -0.774800 
4.628539 -0.129557 25.523397 -0.476700 0.679100 0.558200 
1.057543 -9.950607 23.583981 -0.814400 -0.360300 0.454800 
2.454811 -9.249220 26.691116 -0.686500 -0.332600 0.646500 
0.483996 -3.734411 23.316114 -0.813600 0.237700 0.530500 
-18.041668 -16.649721 -11.456332 -0.191600 -0.761900 -0.618700 
0.373848 -12.567633 20.155102 -0.802900 -0.320900 0.502300 
2.308891 -13.167813 23.178926 -0.805400 -0.325700 0.495300 
-13.036606 -22.784582 14.744822 -0.849400 0.036000 0.526400 
1.557907 -2.122580 23.881672 -0.725500 0.445100 0.524800 
-17.121809 18.352360 -9.742858 0.156400 0.351800 -0.922900 
3.805824 -33.569687 -2.723682 0.020000 -0.999500 -0.021600 
0.146899 -33.691555 -0.667164 0.024600 -0.999300 -0.028900 
-2.423082 -33.535252 -5.682384 0.048500 -0.998600 -0.020400 
-1.513235 -3.353733 -21.960121 -0.780100 0.447600 -0.437000 
3.110454 -2.148278 25.938549 -0.626000 0.460400 0.629300 
-27.646690 3.136210 17.572906 -0.546600 0.246700 0.800300 
4.660410 -19.169218 23.497541 -0.764700 -0.193600 0.614600 
-5.679431 -30.887283 20.363310 -0.675000 0.435400 0.595700 
-25.091938 3.638062 -14.338416 -0.416100 0.256200 -0.872500 
2.428435 -4.931950 26.800135 -0.694000 0.248800 0.675600 
-12.326569 43.605972 -6.945072 -0.684900 0.710000 -0.163800 
3.932785 -12.012627 26.284880 -0.639900 -0.342000 0.688100 
-29.605516 38.056309 -13.909896 -0.978100 0.119700 0.170300 
-29.032900 37.888420 -10.850983 -0.914300 0.346000 0.210400 
-33.508076 23.459492 24.038410 -0.600000 0.375700 0.706200 
-5.679239 -32.396160 21.148199 -0.724600 0.276000 0.631500 
1.832233 -7.462714 26.622915 -0.776600 -0.073100 0.625700 
-21.618900 -2.425979 -16.743031 -0.254600 0.068300 -0.964600 
-21.647446 0.776639 -16.298485 -0.267700 0.194700 -0.943600 
-19.754513 -0.025466 -16.839119 -0.377500 0.111900 -0.919200 
-24.867184 -5.135419 -15.748778 -0.366600 -0.005000 -0.930400 
-24.699389 -0.705772 -15.321390 -0.346000 0.127900 -0.929400 
-23.420088 -1.842525 -15.885295 -0.359600 0.110400 -0.926500 
-16.206856 -24.868757 -7.797407 -0.786400 0.000000 -0.617700 
-14.754378 -20.503035 -10.803743 -0.624000 -0.243900 -0.742400 
-14.965662 -20.797037 10.297422 -0.727700 -0.583000 0.361200 
-16.779396 -19.430899 11.328963 -0.285600 -0.855700 0.431600 
-3.778944 -31.975124 23.625748 -0.780500 0.231200 0.580800 
-14.311014 -24.534492 11.793608 -0.977200 0.124200 0.172300 
-2.071223 -28.371178 21.722197 -0.503000 0.717600 0.481700 
-16.002918 -18.452353 13.572625 -0.231000 -0.827800 0.511200 
4.810585 -15.987723 25.509480 -0.616700 -0.374100 0.692600 
-29.370964 35.686958 -6.807955 -0.836700 0.546000 -0.041400 
-33.481060 27.037888 21.506601 -0.577200 0.518700 0.630700 
-32.515167 30.553324 18.930334 -0.474500 0.651500 0.591900 
32.193642 14.755023 -8.449563 0.538300 0.702200 -0.465900 
-32.620895 16.590078 24.189299 -0.280600 -0.259600 0.924000 
-33.460709 18.837303 24.834581 -0.503200 -0.174900 0.846200 
-35.012051 16.481548 23.617748 -0.506900 -0.074100 0.858800 
-23.013779 -33.901886 12.343440 -0.968200 0.137700 -0.208700 
-33.325211 15.786446 24.076780 -0.160500 -0.088200 0.983100 
-33.669060 21.200777 24.860502 -0.654200 0.141800 0.742900 
-34.870735 19.884375 23.708662 -0.718100 0.070600 0.692300 
-3.880128 -10.851279 -18.853617 -0.929800 -0.231400 -0.286100 
-29.765537 -7.200339 16.048868 -0.631000 -0.339900 0.697400 
-29.042961 -10.022667 14.819253 -0.633000 -0.482300 0.605500 
-25.902493 -33.364151 -4.966422 -0.840400 0.408900 -0.355600 
-26.662968 -34.775734 -4.497775 -0.982000 -0.040300 -0.184700 
35.632790 -30.939724 -8.234429 0.175500 -0.549000 -0.817200 
38.031361 -31.775063 -7.114236 0.230000 -0.643900 -0.729600 
-29.508167 -5.172378 17.022738 -0.641600 -0.161500 0.749800 
-34.284138 13.711552 23.453934 -0.370000 -0.332300 0.867600 
-35.141621 22.831537 22.640099 -0.753700 0.281900 0.593700 
-28.236977 -2.485162 18.318882 -0.610800 -0.015100 0.791700 
-21.432936 4.977576 -15.920359 -0.377100 0.191200 -0.906200 
-22.615715 7.729617 -14.020319 -0.445500 0.340800 -0.827800 
-19.485027 7.961405 -15.655099 -0.334900 0.329000 -0.882900 
-31.220448 -2.177619 15.326124 -0.742300 -0.004700 0.670100 
-36.436802 15.140324 22.506338 -0.666700 -0.146100 0.730800 
-32.805138 13.364550 23.681400 -0.121600 -0.379900 0.917000 
-23.164272 39.715961 -39.535316 -0.507500 -0.369300 -0.778400 
-16.735512 -34.978916 22.395924 -0.060900 -0.581700 0.811100 
2.583426 4.587648 -19.731558 -0.036800 0.195600 -0.980000 
3.783145 2.517286 -20.013828 -0.068100 0.293900 -0.953400 
-26.194740 -32.852692 -1.821030 -0.930200 0.366600 0.015900 
-24.960911 -31.400532 -3.520182 -0.772800 0.621100 -0.130600 
-32.682465 20.063629 -8.237500 -0.473100 0.148000 -0.868500 
-33.247658 23.830503 -6.442107 -0.645500 0.270800 -0.714100 
-31.569229 22.189833 -8.093583 -0.508000 0.203800 -0.836900 
-35.372948 26.344650 19.960215 -0.765700 0.390900 0.510800 
28.724545 1.382043 -19.101246 0.284700 0.298800 -0.910800 
31.168184 2.283711 -17.914093 0.435300 0.318600 -0.842000 
30.674234 -0.130059 -18.756126 0.406000 0.285700 -0.868000 
-22.709949 -35.514256 12.220181 -0.717300 -0.679900 -0.152400 
-15.151571 -25.373837 1.608481 -0.780000 0.125600 0.613100 
-31.022171 25.111824 -7.918641 -0.586100 0.169300 -0.792300 
-26.229898 -34.455681 -0.211728 -0.873400 0.127400 0.470000 
-25.878130 -32.909508 -0.561204 -0.796700 0.402100 0.451200 
-25.176952 -31.285446 -1.415862 -0.738500 0.648100 0.185700 
-36.129829 19.627077 22.255064 -0.764100 0.151200 0.627100 
-3.516749 -22.314095 -12.058271 -0.308500 -0.275600 -0.910400 
-2.903874 -25.522711 -11.962918 -0.581700 0.391400 -0.713000 
-22.389833 3.047456 -15.521808 -0.363400 0.090300 -0.927200 
-23.214771 -34.991840 14.879921 -0.910500 -0.393400 0.127100 
-30.523571 0.369241 15.831581 -0.677800 0.106800 0.727400 
-22.356808 -35.661915 14.816868 -0.382600 -0.921300 0.068600 
-35.360775 -3.182037 9.498197 -0.881900 -0.224500 0.414600 
-34.986847 -1.496036 10.656923 -0.844500 -0.076800 0.530000 
-34.692368 1.685930 11.019257 -0.825800 0.122600 0.550500 
-24.578743 -33.448666 1.031609 -0.705700 0.373600 0.601900 
-17.376400 37.920990 -5.068243 -0.706600 0.452300 -0.544100 
-24.703991 -35.256409 1.795554 -0.740400 -0.289900 0.606400 
-33.465916 -4.726675 12.104236 -0.839400 -0.170400 0.516100 
-33.457870 5.214853 11.393279 -0.775400 0.268600 0.571400 
-23.382402 -18.553568 -6.479362 -0.465700 -0.783100 -0.412100 
-28.616226 5.594853 16.212864 -0.604000 0.087600 0.792100 
-23.530613 -33.643997 2.690646 -0.692700 0.377100 0.614700 
-33.229446 -0.052840 13.109344 -0.768400 0.023700 0.639500 
-8.869949 40.791801 -11.632213 -0.525300 0.001900 -0.850900 
-17.784725 -4.774283 -18.088718 -0.279900 -0.042300 -0.959100 
-16.492126 -7.372727 -18.242001 -0.131900 -0.205800 -0.969700 
-31.406162 2.151092 14.757731 -0.691700 0.162900 0.703500 
17.860872 -35.853497 -15.394452 -0.098000 -0.889700 0.445900 
-8.544617 0.460256 -18.967178 -0.129300 0.117000 -0.984600 
29.687588 17.113663 -7.188718 0.459800 0.774800 -0.433900 
-34.770191 31.496113 15.466510 -0.634100 0.622300 0.458900 
-21.675047 -34.988831 5.182812 -0.799000 -0.146600 0.583200 
-31.911423 -7.927353 13.323785 -0.760800 -0.389100 0.519300 
-32.200958 4.474054 13.134078 -0.725500 0.218200 0.652600 
5.610031 55.608459 -17.578924 -0.368900 0.896400 -0.245500 
-15.365081 -26.914392 1.891381 -0.711200 0.394700 0.581700 
-34.729824 29.051178 18.480171 -0.657100 0.538200 0.527700 
-21.431345 -33.579224 4.526370 -0.609100 0.481300 0.630300 
-31.798866 -5.710392 14.434120 -0.779600 -0.153100 0.607200 
-30.654598 7.190000 13.800702 -0.769500 0.071200 0.634600 
-29.503891 7.766021 15.413256 -0.752400 -0.359800 0.551700 
15.149071 6.935895 -18.905136 0.154200 0.215400 -0.964300 
14.896734 9.243310 -18.344027 0.180700 0.407500 -0.895100 
18.370758 7.956193 -17.793335 0.139300 0.276800 -0.950800 
-27.767467 26.041136 -9.431643 -0.357600 0.072400 -0.931000 
-30.325909 27.771482 -8.191574 -0.597100 0.098300 -0.796100 
-28.676153 28.938345 -8.915114 -0.520100 -0.015300 -0.854000 
-30.580132 -10.725702 12.119127 -0.717100 -0.555200 0.421400 
-2.207022 -35.462364 -23.825125 0.098500 -0.218600 -0.970800 
0.880099 -35.711784 -22.897987 0.226900 -0.590800 -0.774200 
12.985356 6.617544 -19.134863 0.046100 0.211500 -0.976300 
-37.857830 17.163301 21.039379 -0.802900 0.092200 0.588800 
-10.496896 2.577218 -18.467426 -0.009000 0.140600 -0.990000 
-14.267718 41.826199 -4.380378 -0.606200 0.774300 0.181500 
-0.537209 -8.980709 -26.459606 -0.698500 -0.029200 -0.715000 
1.172246 -10.814507 -27.497849 -0.565800 -0.147400 -0.811200 
1.149379 -13.822793 -26.700644 -0.603900 -0.300800 -0.738100 
-30.779434 18.834614 -9.100270 -0.421600 -0.003100 -0.906800 
22.574677 -36.004955 -14.684160 -0.054400 -0.993600 0.098800 
20.590248 -36.029808 -16.688269 0.016800 -0.999800 -0.007100 
-20.850569 11.115849 -13.592981 -0.382100 0.440900 -0.812200 
-29.811440 11.606028 23.463877 -0.357000 -0.638100 0.682100 
17.933083 11.290847 -17.306278 -0.024700 0.352800 -0.935300 
-36.316685 13.217911 21.805988 -0.629400 -0.444100 0.637700 
0.481524 -8.186715 -27.402130 -0.567500 0.016000 -0.823200 
34.215637 -29.710581 -9.141509 0.334300 -0.509200 -0.793000 
-21.235893 46.583046 -42.277008 -0.357800 -0.073400 -0.930900 
26.653650 11.884789 -14.727858 0.330200 0.431100 -0.839700 
29.849220 9.208759 -14.478371 0.358600 0.429900 -0.828600 
26.861012 9.418090 -15.641741 0.329600 0.318200 -0.888900 
11.807690 11.712310 -16.373604 -0.089100 0.660500 -0.745500 
9.408792 12.811349 -15.321875 -0.028700 0.598700 -0.800400 
12.808752 13.953961 -14.645286 -0.038700 0.635700 -0.771000 
-22.534721 49.464989 -41.732544 -0.443600 0.069400 -0.893500 
13.604940 11.207110 -17.197691 0.119200 0.838600 -0.531400 
12.127038 9.015384 -18.741119 -0.051700 0.384600 -0.921600 
11.356201 10.320725 -17.755655 -0.199200 0.629000 -0.751500 
21.149216 19.802452 -8.554138 0.109400 0.858500 -0.501000 
22.469593 16.202124 -13.192384 0.162700 0.716500 -0.678400 
20.670734 14.211797 -15.199362 0.108200 0.611900 -0.783500 
19.500542 15.734947 -13.788557 -0.045400 0.729300 -0.682700 
48.655277 -14.703995 -3.552243 0.142500 0.734200 -0.663800 
21.228247 0.176460 -23.239658 0.306500 0.678800 -0.667300 
31.371271 5.067618 -16.418018 0.391400 0.449800 -0.802800 
34.055313 2.236642 -15.928129 0.555400 0.322900 -0.766300 
-25.251564 44.766514 -36.133896 -0.861100 -0.286100 -0.420200 
-19.077293 -30.823935 -9.417876 -0.384800 0.590000 -0.709800 
-27.581230 50.381855 -37.779495 -0.660100 -0.192300 -0.726100 
-26.651848 49.134769 -37.550957 -0.651100 -0.517100 -0.555600 
1.554066 -20.404160 -23.948547 -0.651800 -0.307500 -0.693200 
3.595525 -24.362080 -23.511095 -0.462900 -0.366600 -0.807100 
-25.046879 39.102139 -35.080654 -0.960300 0.009600 -0.278800 
-24.208145 39.352211 -37.954987 -0.888800 -0.085600 -0.450200 
-27.909136 46.783131 -33.960312 -0.450800 -0.655700 -0.605600 
-25.872467 41.481461 -32.646019 -0.938500 -0.158900 -0.306400 
-29.470390 47.742764 -34.150276 -0.525300 -0.607500 -0.595800 
-27.280121 44.702309 -32.304787 -0.648100 -0.579300 -0.494400 
-25.989437 37.833271 -30.739569 -0.982300 0.044800 -0.182000 
-25.812931 36.332031 -32.896828 -0.965600 0.018100 -0.259300 
-27.714493 42.092781 -28.373909 -0.717900 -0.572600 -0.395700 
-1.858589 -26.764936 -17.073895 -0.628100 0.751700 -0.200900 
-29.796593 45.638046 -31.300453 -0.563700 -0.651500 -0.507800 
-30.631193 45.737633 -30.253605 -0.938000 -0.271800 -0.215200 
-26.916258 38.480488 -25.895359 -0.963700 -0.177800 -0.199200 
-29.784901 43.136665 -27.496105 -0.642100 -0.656200 -0.396300 
-27.307632 40.195648 -26.602758 -0.867800 -0.404400 -0.288700 
19.499264 18.034472 -11.087200 -0.019700 0.790200 -0.612600 
24.581802 14.794209 -13.817339 0.280900 0.592500 -0.755000 
23.793943 12.764543 -15.261126 0.272600 0.471000 -0.839000 
-19.331718 -29.679518 -7.908702 -0.486300 0.715500 -0.501600 
-22.851982 -31.124535 -7.082058 -0.546000 0.693000 -0.470700 
-26.265503 32.638630 -26.213408 -0.299300 -0.935000 -0.190200 
-27.210545 36.251225 -23.396006 -0.980300 0.132900 -0.145700 
-0.777246 12.328088 -14.936501 -0.033900 0.612700 -0.789600 
-3.407807 10.380115 -16.276781 0.044400 0.486100 -0.872700 
-0.920933 13.753935 -13.635036 -0.050300 0.723500 -0.688500 
31.899920 -35.801147 1.177817 -0.141400 -0.987900 0.063800 
29.360178 -34.967033 -0.158791 -0.403100 -0.869900 0.284200 
29.616283 -35.754868 -2.043090 -0.165200 -0.971600 0.169200 
23.105623 -35.683727 -12.187452 -0.763200 -0.625500 0.162000 
24.001160 -35.928051 -9.004008 -0.036000 -0.999100 -0.020300 
21.270266 -35.733780 -7.236739 -0.370300 -0.899100 -0.233300 
7.721934 14.259157 -14.109030 -0.114400 0.725800 -0.678300 
9.320347 7.277164 -18.845831 -0.091600 0.377300 -0.921500 
0.897241 -17.478884 -24.428648 -0.706700 -0.305700 -0.638000 
-0.631037 -12.774512 -25.442410 -0.732200 -0.282500 -0.619700 
-1.765823 -10.316773 -25.119619 -0.808000 -0.132200 -0.574100 
-1.913987 -8.281422 -24.739119 -0.846800 0.100400 -0.522300 
-30.325224 41.994545 -24.525223 -0.897100 -0.393900 -0.200000 
37.667156 -1.164806 -14.822474 0.600800 0.475900 -0.642200 
35.754696 -1.038451 -16.352287 0.563700 0.324200 -0.759700 
-0.386969 -15.559183 -23.795822 -0.783800 -0.363000 -0.503700 
-1.888973 -12.135566 -23.633650 -0.863500 -0.295400 -0.408700 
2.799336 -0.493625 -24.648817 -0.395600 0.779500 -0.485700 
0.196416 -2.480509 -24.576593 -0.688100 0.568700 -0.450500 
-1.618991 -5.272747 -23.733727 -0.853700 0.336600 -0.397200 
-28.562973 39.053104 -21.574783 -0.714000 -0.622100 -0.321100 
21.102228 12.280080 -16.437101 0.178500 0.492000 -0.852000 
23.125404 3.996909 -18.695425 -0.054700 0.385400 -0.921100 
20.584826 3.416934 -18.807854 0.126300 0.560800 -0.818200 
21.083250 4.617682 -18.168312 0.124400 0.334800 -0.934000 
-1.373483 -15.912451 -22.022697 -0.865000 -0.300600 -0.401700 
-3.105137 -10.405368 -22.054754 -0.924800 -0.146600 -0.350900 
-2.732898 -7.363691 -22.889847 -0.890900 0.149200 -0.429000 
-30.362999 41.794136 -22.462379 -0.995200 0.057200 0.079500 
-0.233987 -19.209517 -22.192829 -0.846500 -0.275500 -0.455500 
-3.133769 -8.756280 -21.717363 -0.931300 0.019000 -0.363600 
-27.716669 37.386791 -20.529961 -0.903700 -0.345700 -0.252300 
-0.611454 -19.878811 -20.380667 -0.908100 -0.259800 -0.328400 
-2.742534 -13.355913 -20.349674 -0.910200 -0.276400 -0.308500 
-30.098755 39.909992 -19.829521 -0.957600 -0.275500 -0.084100 
16.417597 4.189960 -19.144381 0.127300 0.403000 -0.906300 
0.293893 -24.116343 -20.518164 -0.815500 -0.139600 -0.561700 
-1.818714 -17.493973 -19.080374 -0.907300 -0.279800 -0.313800 
-9.708072 -34.850407 -19.981056 -0.860200 0.170900 -0.480500 
-10.498289 -35.687401 -18.247658 -0.889600 -0.298400 -0.345700 
-8.556702 -34.754135 -21.781891 -0.668900 0.234000 -0.705500 
-7.809454 -31.612110 -19.866331 -0.675800 0.489100 -0.551300 
-6.068717 -31.049316 -21.566126 -0.524100 0.527300 -0.668800 
-0.966833 -21.666725 -18.216520 -0.924100 -0.159800 -0.347000 
-31.939789 8.747330 12.234677 -0.793800 -0.442100 0.417500 
-10.629810 41.515228 -10.336535 -0.615000 0.168900 -0.770200 
-12.362549 42.305557 -8.465197 -0.695500 0.385800 -0.606100 
-28.803421 37.449116 -18.281996 -0.705100 -0.612200 -0.357800 
-1.540901 -33.706215 -23.504034 0.057300 0.138700 -0.988600 
12.712747 -34.662563 -20.536001 0.111800 -0.427700 -0.896900 
18.754776 -33.304230 10.109519 -0.254600 -0.914900 0.313000 
19.971252 -32.825039 14.532990 -0.159600 -0.986700 0.032000 
15.234924 -33.293053 9.649026 -0.003800 -0.997400 0.071400 
-28.729229 33.456844 -15.534943 -0.975100 -0.207800 -0.077300 
24.905293 18.050064 -9.531400 0.314000 0.794500 -0.519800 
22.468380 17.572416 -11.327176 0.177400 0.797300 -0.576900 
-10.174378 -33.119083 -18.088428 -0.860900 0.361600 -0.357900 
-3.692855 -28.020884 -18.810629 -0.393600 0.854800 -0.338200 
-3.588269 -13.268523 -17.923616 -0.892800 -0.254600 -0.371400 
-3.931745 -29.682314 -21.703470 -0.320000 0.667300 -0.672500 
-27.386135 32.186634 -17.571487 -0.750500 -0.643100 -0.151800 
-28.661381 34.277561 -17.358427 -0.982900 0.166900 -0.077400 
-28.167942 35.917480 -16.814390 -0.897600 -0.355100 -0.261200 
-28.133045 35.108795 -17.068171 -0.956000 0.284100 -0.072500 
7.142388 53.263794 -21.052017 -0.612000 0.234200 -0.755400 
5.778031 50.529045 -19.961454 -0.605800 -0.060500 -0.793300 
3.971659 51.336689 -18.469217 -0.653800 0.176400 -0.735800 
-11.056129 -34.449127 -16.096956 -0.921700 0.265300 -0.282900 
7.913719 -35.486732 -21.072876 0.191300 -0.533900 -0.823600 
-29.502600 37.310413 -16.813231 -0.810100 -0.526000 -0.259100 
2.842140 53.416550 -16.183504 -0.665400 0.594000 -0.452000 
-9.597342 -31.359842 -16.226107 -0.826300 0.504000 -0.251300 
-1.341425 -25.265642 -16.035414 -0.950600 0.173300 -0.257400 
-1.664196 -22.330469 -16.130741 -0.943900 -0.153900 -0.292200 
-17.264957 -36.204926 -12.129516 -0.257900 -0.537200 -0.803000 
-29.768801 37.418785 -15.389202 -0.973800 -0.227500 0.002400 
34.283081 4.955746 -14.890745 0.496000 0.361600 -0.789400 
35.969177 3.392746 -14.202306 0.607100 0.193600 -0.770600 
0.087318 6.114925 -19.128269 -0.163500 0.327500 -0.930600 
-27.944555 31.837597 -13.933143 -0.780600 -0.601600 -0.169400 
-10.290467 -31.057241 -13.945901 -0.809100 0.506700 -0.297600 
-1.952279 -23.404150 -14.062432 -0.941800 -0.117100 -0.315000 
32.386360 12.928822 -10.361351 0.528600 0.617400 -0.582500 
32.821140 11.082363 -11.735441 0.464100 0.545000 -0.698200 
29.098351 12.562943 -13.291985 0.417900 0.502900 -0.756600 
-11.325923 -35.752995 18.414089 0.018600 -0.997300 0.070100 
-29.749859 -12.129815 -8.625537 -0.664800 -0.579900 -0.470800 
-27.753376 -11.644276 -11.042002 -0.602300 -0.524600 -0.601600 
-26.421520 -13.606402 -9.912591 -0.509700 -0.701200 -0.498500 
-33.469215 10.125273 11.684978 -0.608400 -0.770500 0.190100 
-28.435198 34.677990 -14.065922 -0.986000 -0.126000 -0.109100 
-11.372910 -33.193859 -13.839882 -0.914400 0.290500 -0.281900 
-2.008440 -25.454504 -13.761808 -0.841800 0.396300 -0.366400 
19.444309 5.822116 -18.338779 0.163900 0.244800 -0.955600 
10.574738 0.226122 -25.700634 0.004400 0.720100 -0.693800 
7.774603 -0.211219 -26.020111 -0.059400 0.714100 -0.697400 
33.814758 8.558449 -13.003752 0.457800 0.496900 -0.737200 
32.012939 9.061068 -13.577513 0.370700 0.521100 -0.768700 
-29.101246 35.539959 -13.168957 -0.922700 -0.369900 -0.108100 
-27.136417 -8.538993 -13.679690 -0.600200 -0.364100 -0.712100 
-29.364023 -6.767731 -12.300103 -0.713900 -0.275900 -0.643600 
-27.545784 -5.904359 -14.522419 -0.565600 -0.142200 -0.812300 
-3.478025 -35.428013 22.745003 -0.284400 -0.910800 0.299100 
6.486793 0.599171 -24.680901 -0.168200 0.863800 -0.474900 
-2.827589 50.029957 -12.406186 -0.640400 0.677000 -0.362700 
23.823032 19.791632 -7.340769 0.266300 0.853100 -0.448500 
19.205521 -33.604164 -7.707540 -0.471600 -0.831300 -0.294200 
18.217178 -35.320374 -4.034971 -0.549600 -0.770100 -0.323800 
16.334599 -34.074791 -2.566440 -0.679000 -0.684700 -0.264600 
-29.067358 32.435181 -10.792285 -0.948000 -0.191000 -0.254500 
-29.840889 -3.822387 -12.446612 -0.743200 -0.083400 -0.663900 
-31.204704 -1.281193 -11.081617 -0.741100 -0.022600 -0.671000 
-28.806581 -1.906938 -13.615614 -0.602500 0.057100 -0.796000 
-30.429491 0.614882 -11.790127 -0.685800 0.176100 -0.706200 
-0.106007 10.171884 -16.230875 -0.086500 0.560900 -0.823300 
-29.332306 35.579071 -10.876850 -0.992300 -0.114700 -0.045400 
-31.012806 -5.993298 -10.686242 -0.860100 -0.197200 -0.470400 
-32.027534 1.730857 -9.554467 -0.738800 0.212300 -0.639600 
-28.696327 33.898506 -10.842253 -0.979700 -0.027500 -0.198400 
9.000505 9.487842 -17.526419 -0.090200 0.540300 -0.836600 
-31.615520 -3.606804 -10.109912 -0.752500 -0.149800 -0.641300 
1.125097 17.330637 -8.113846 -0.048400 0.928800 -0.367400 
-2.871587 17.273708 -8.975014 0.236300 0.846900 -0.476200 
3.981739 -35.652218 -22.205029 0.195600 -0.574600 -0.794700 
1.848960 -34.064648 -22.921362 0.206700 -0.061100 -0.976500 
26.556032 -4.641062 -22.800930 0.467400 0.165400 -0.868400 
24.679634 -1.853396 -22.991581 0.461400 0.433500 -0.774000 
26.869740 -2.460917 -21.706039 0.492700 0.412300 -0.766300 
6.739159 -32.677006 -21.968941 0.211100 -0.088000 -0.973500 
-32.944248 -0.554270 -9.141103 -0.800700 0.074000 -0.594400 
26.301527 15.450058 -12.279094 0.354600 0.683900 -0.637600 
-27.961842 29.861614 -9.719991 -0.705300 -0.425400 -0.567100 
28.267370 -1.406916 -20.363863 0.385400 0.382300 -0.839800 
30.425858 -4.565669 -20.385019 0.476800 0.214600 -0.852400 
46.104996 -15.454607 -4.412553 0.016000 0.681400 -0.731700 
2.567323 -33.377842 -12.085693 0.015100 -0.999800 -0.010700 
11.962573 -3.087234 -27.361038 0.154100 0.347800 -0.924800 
-29.459496 34.378059 -8.779093 -0.978400 0.095700 -0.183000 
3.691987 9.995221 -17.246908 -0.090800 0.576800 -0.811800 
0.469063 7.955426 -18.197525 -0.171200 0.542500 -0.822400 
-30.750132 -8.499994 -9.637256 -0.751400 -0.332900 -0.569700 
-33.142086 -2.843277 -8.819899 -0.783300 -0.117100 -0.610400 
5.107333 -33.426167 -8.155801 0.022900 -0.999500 -0.022900 
6.268717 12.418616 -15.752742 -0.063800 0.635900 -0.769100 
2.661325 12.553617 -14.776152 -0.088600 0.674300 -0.733100 
5.829031 15.282459 -12.096112 -0.104300 0.778500 -0.618900 
21.294636 10.651448 -17.162273 0.190500 0.274100 -0.942600 
-16.582939 -22.338984 -7.440353 -0.900400 -0.161300 -0.404100 
-15.618450 -20.553682 -9.989262 -0.672400 -0.325100 -0.665000 
-28.119455 -14.277682 -6.800985 -0.609900 -0.706000 -0.359900 
-32.844398 -6.470757 -8.050946 -0.793600 -0.298900 -0.529900 
6.639199 10.189467 -17.181562 0.006200 0.516600 -0.856200 
-29.611614 31.409267 -8.042295 -0.839000 -0.037500 -0.542800 
-17.317295 -26.735949 -6.348869 -0.866400 0.359300 -0.346800 
-31.524155 -10.564612 -7.222490 -0.809400 -0.429900 -0.399900 
-32.590992 -8.003499 -6.872060 -0.835900 -0.397500 -0.378500 
-34.157497 -2.551768 -7.233805 -0.898000 -0.046400 -0.437500 
-33.678665 2.124791 -7.395432 -0.843800 0.158000 -0.512800 
-31.754044 9.030751 -6.641112 -0.755100 0.283300 -0.591200 
-28.809353 10.093662 -9.193043 -0.598100 0.312800 -0.737800 
-18.288097 -27.890507 -5.302254 -0.674700 0.717600 -0.172400 
12.575790 16.911423 -12.248363 -0.047900 0.697800 -0.714700 
-23.365871 -15.945904 -9.515391 -0.488100 -0.691200 -0.532900 
-26.395660 -16.301325 -5.863264 -0.589900 -0.701700 -0.399400 
-33.044216 5.063377 -7.405722 -0.799300 0.245900 -0.548200 
-31.902344 10.701240 -5.959511 -0.708100 -0.143100 -0.691400 
-30.113701 33.245590 -6.930877 -0.878700 0.190900 -0.437400 
-13.851408 41.715454 -7.028136 -0.735800 0.469500 -0.487900 
-21.123791 -29.199474 -5.139162 -0.414900 0.845700 -0.335700 
-15.830993 -27.827379 -8.980943 -0.577600 0.356000 -0.734600 
-17.673540 -20.811197 -6.076894 -0.656300 -0.675300 -0.336400 
-16.867294 -19.376362 -8.882194 -0.545700 -0.568400 -0.615600 
-30.615280 -12.294713 -5.936852 -0.693500 -0.662400 -0.283300 
-34.203854 -6.238597 -5.476310 -0.859200 -0.374600 -0.348500 
-34.546379 1.236976 -5.828803 -0.915600 0.085800 -0.392700 
-31.639313 29.279110 -6.348482 -0.788000 0.154600 -0.595900 
-35.051460 -4.364999 -4.879723 -0.912800 -0.140500 -0.383400 
-34.645092 -1.508468 -5.457907 -0.950300 0.021100 -0.310600 
9.571614 16.786087 -11.256970 -0.227600 0.764400 -0.603200 
-1.362821 -36.132053 3.394109 0.067500 -0.996800 0.043800 
-15.612694 37.500320 -6.921661 -0.617200 0.171700 -0.767800 
-24.723833 -31.644863 -5.313996 -0.735100 0.541100 -0.408500 
-23.567657 -30.108894 -4.485222 -0.579500 0.780900 -0.233000 
-35.522808 15.273984 -5.536594 -0.728500 -0.241000 -0.641200 
-36.017311 18.451292 -5.085244 -0.863000 0.043400 -0.503400 
-34.557819 18.237272 -7.069864 -0.668300 -0.020400 -0.743600 
-35.044342 20.075342 -6.321561 -0.751000 0.188600 -0.632800 
32.334473 -2.762892 -19.050829 0.457100 0.248900 -0.853800 
34.096123 -1.834886 -17.651844 0.507900 0.273200 -0.816900 
-31.218391 33.708607 -5.066605 -0.762300 0.406800 -0.503300 
-32.416664 -10.933089 -4.372797 -0.823000 -0.487600 -0.291300 
35.406551 8.212208 -12.064775 0.556100 0.488600 -0.672300 
-16.462757 39.771984 -4.603896 -0.753900 0.611800 -0.239400 
-31.093834 -12.876267 -3.604515 -0.683500 -0.683800 -0.255400 
32.630253 -5.791955 -19.320751 0.544000 0.105100 -0.832500 
21.348240 -1.519995 -24.415609 0.325000 0.408200 -0.853100 
23.857964 -3.722816 -23.945791 0.407300 0.153000 -0.900400 
35.139503 10.797949 -10.341352 0.581400 0.581400 -0.569100 
11.410681 18.638891 -10.104436 -0.212500 0.798200 -0.563600 
5.051701 16.125889 -11.158978 -0.001100 0.799600 -0.600500 
29.910450 14.093904 -11.438897 0.472600 0.636000 -0.610000 
42.402607 -20.050817 -7.504751 0.049500 0.420100 -0.906100 
27.861992 16.343756 -10.037968 0.399700 0.758500 -0.514700 
25.040892 -0.180756 -21.286339 0.440700 0.608900 -0.659500 
43.466557 -14.673977 -4.861137 0.828900 0.109000 -0.548700 
26.639523 -35.892418 -4.052814 -0.051300 -0.951100 0.304400 
26.015118 -34.785473 -3.232020 -0.013900 -0.643700 0.765100 
25.230019 -35.107010 -3.096997 0.072500 -0.734400 0.674800 
19.110390 -33.114613 -10.279368 -0.239600 -0.970800 -0.006000 
15.987625 -33.338478 -3.991740 -0.241600 -0.956500 -0.163300 
27.564320 7.236966 -16.067266 0.255200 0.451900 -0.854700 
28.231567 5.879411 -17.029589 0.239100 0.658600 -0.713500 
27.245178 4.946929 -18.322338 0.134200 0.568400 -0.811700 
4.221150 17.352570 -9.101122 -0.120500 0.879300 -0.460700 
-4.709603 15.710938 -11.813998 0.296100 0.671800 -0.678900 
-4.853585 17.190836 -10.405391 0.350100 0.690300 -0.633200 
44.283096 -17.752010 -6.159694 0.104000 0.526600 -0.843700 
13.844653 -32.910362 16.591589 0.023100 -0.997200 0.070400 
15.501499 10.765998 -17.224913 0.039300 0.516400 -0.855400 
44.419838 -14.640623 -3.621129 0.535000 0.424800 -0.730200 
44.501823 -20.962008 -8.295904 -0.008400 0.411500 -0.911400 
-4.348565 -36.021423 8.217186 -0.232600 -0.969500 -0.076600 
7.077168 18.543774 -7.619698 -0.219800 0.876900 -0.427500 
-20.374702 33.639084 -6.407540 0.557100 0.579700 -0.594700 
-19.846951 35.301979 -4.829815 -0.298100 0.614700 -0.730200 
-3.993959 -36.232071 2.033417 -0.260900 -0.955400 0.137900 
-5.567202 -36.349491 -2.686249 -0.001400 -0.999500 0.032400 
-18.858564 31.934443 -6.562837 0.327700 0.313600 -0.891200 
-18.397427 34.294613 -5.824519 -0.369100 0.258600 -0.892700 
1.565899 -31.676678 -22.952627 0.121000 0.169100 -0.978100 
0.164197 15.881929 -10.838889 -0.015200 0.827800 -0.560900 
9.543169 18.906122 -8.550190 -0.267800 0.849400 -0.454800 
40.637566 -29.134144 -8.146175 0.277400 -0.554400 -0.784600 
-17.373917 29.341881 -6.773894 0.293600 0.345400 -0.891300 
-16.886082 26.117136 -7.870173 0.561800 0.270100 -0.781900 
-17.316166 23.863148 -8.805958 0.433500 0.189700 -0.880900 
-13.235962 9.416259 -16.532423 -0.028500 0.351100 -0.935900 
-11.894231 10.447085 -15.918989 0.053000 0.436000 -0.898300 
-10.532633 8.593675 -16.707726 -0.042300 0.416300 -0.908200 
16.636370 -35.251804 -0.473299 -0.574400 -0.808600 -0.127100 
-19.254965 15.719051 -11.057182 -0.125600 0.441200 -0.888600 
-15.811518 23.900238 -7.824939 0.575300 0.291800 -0.764100 
-3.352655 14.513273 -12.586205 0.093300 0.726000 -0.681300 
24.332142 6.322978 -17.379293 0.143100 0.418800 -0.896700 
-15.332651 18.095411 -9.837940 -0.099100 0.678300 -0.728000 
-14.567225 16.428585 -11.908551 -0.204000 0.670800 -0.713000 
-16.525425 12.876860 -14.217311 -0.233600 0.528300 -0.816300 
-19.453674 14.004583 -12.242464 -0.322000 0.560300 -0.763100 
8.853283 -33.909531 -21.264816 0.174000 -0.190700 -0.966100 
18.319063 -2.614725 -25.606796 0.289000 0.283500 -0.914300 
-14.453124 21.049704 -7.900936 0.474700 0.382900 -0.792500 
-13.654278 19.769630 -8.320708 0.121800 0.682600 -0.720500 
-17.105146 20.576342 -9.150598 0.320600 0.193400 -0.927200 
-12.567804 21.354591 -6.223480 0.541100 0.613600 -0.575000 
-13.122665 14.200701 -14.071204 -0.134000 0.520400 -0.843300 
-12.020382 18.428869 -10.474300 -0.089400 0.771000 -0.630500 
-12.569195 12.353814 -15.009731 -0.045200 0.438100 -0.897800 
-11.824739 15.857302 -13.117510 -0.095200 0.641900 -0.760800 
-10.228128 16.781389 -12.371375 -0.000300 0.666900 -0.745100 
-11.054237 19.814423 -8.360314 0.085200 0.883800 -0.460000 
-9.997001 14.219933 -14.265233 0.061000 0.486500 -0.871500 
-8.467398 17.928471 -11.165866 0.105700 0.760900 -0.640200 
-8.654263 11.825606 -15.142548 -0.006600 0.465000 -0.885300 
-8.187581 18.921383 -9.641315 0.149000 0.871000 -0.468200 
-28.673046 8.240098 16.847532 -0.429600 -0.699200 0.571400 
19.105309 9.136691 -17.551991 0.064600 0.140000 -0.988000 
-7.329569 14.435894 -13.634166 0.134900 0.552700 -0.822400 
23.629904 -34.801495 21.361637 0.205400 -0.537500 0.817800 
-7.084235 16.407391 -12.371902 0.224900 0.610000 -0.759800 
-6.113969 18.263857 -9.825160 0.292000 0.810300 -0.508000 
46.825333 -21.671812 -8.202436 0.354300 0.098500 -0.929900 
-5.177622 -35.346771 8.389463 -0.646200 -0.629800 -0.431000 
22.788134 8.989045 -17.113403 0.227100 0.218400 -0.949100 
-5.509511 13.036173 -14.533546 0.093200 0.616500 -0.781800 
-5.620379 10.375360 -16.375704 -0.022400 0.483500 -0.875000 
31.045040 -8.385042 -20.699799 0.513600 0.094600 -0.852700 
-6.146321 -35.271893 9.198629 -0.532700 -0.201300 -0.822000 
-29.393904 11.851285 -8.199802 -0.564000 -0.091300 -0.820700 
-25.728888 7.999783 -12.327695 -0.463000 0.355400 -0.812000 
-27.452801 15.570684 -10.160789 -0.262900 -0.110900 -0.958400 
-28.776226 13.755503 -9.364349 -0.384900 -0.278000 -0.880100 
-28.342152 19.551300 -10.244218 -0.305100 0.016800 -0.952100 
-29.312616 21.722147 -9.603921 -0.412300 0.136600 -0.900700 
45.366253 -24.763113 -8.507746 0.432400 -0.238400 -0.869500 
-14.573656 7.159587 -16.992460 -0.151600 0.299900 -0.941800 
-16.262413 9.780318 -16.033361 -0.213200 0.381700 -0.899300 
43.505341 -24.553486 -9.229403 0.192000 -0.031400 -0.980900 
43.420197 -23.038485 -9.051491 0.048300 0.256000 -0.965500 
43.025349 -26.431953 -9.020339 0.260100 -0.315600 -0.912500 
-11.953025 -13.003495 -15.093921 -0.189200 -0.416600 -0.889200 
30.225437 -21.433950 -21.038200 0.521500 -0.018600 -0.853000 
-23.927452 -8.447516 -15.706645 -0.405500 -0.241300 -0.881600 
-10.090897 37.946899 -10.633603 -0.425100 -0.221600 -0.877600 
-18.603767 2.890037 -16.963490 -0.368700 0.180200 -0.911900 
-24.943588 -13.135558 -11.990385 -0.479100 -0.665500 -0.572300 
-21.814093 -12.659487 -14.630930 -0.319600 -0.601200 -0.732400 
-21.866959 -14.416882 -12.786777 -0.363600 -0.703000 -0.611200 
-13.384008 36.747887 -8.545375 -0.501900 -0.101000 -0.859000 
-25.285120 -11.131294 -13.733253 -0.516300 -0.489100 -0.703000 
38.955975 -28.117371 -9.093156 0.122400 -0.315800 -0.940900 
-17.886618 6.071689 -16.545160 -0.245700 0.230000 -0.941600 
-16.066551 2.332200 -18.284941 -0.256600 0.182700 -0.949000 
-18.117983 0.884952 -17.799335 -0.437700 0.147800 -0.886900 
40.019653 -25.511290 -9.444341 0.067000 -0.020300 -0.997500 
-17.972286 -12.118555 -15.943118 -0.093100 -0.492700 -0.865200 
-21.738689 -36.391792 -8.504923 -0.026600 -0.998400 -0.050500 
-26.466299 24.389296 -10.085247 -0.231300 0.144800 -0.962000 
-20.727648 -4.692573 -16.931299 -0.285700 0.003200 -0.958300 
-16.337772 4.770793 -17.367979 -0.288900 0.287400 -0.913200 
-15.924371 -1.591521 -18.688938 -0.123100 0.017100 -0.992200 
-18.137939 -1.973456 -17.998932 -0.464300 0.000300 -0.885600 
-9.717238 -9.930811 -16.845675 -0.050300 -0.341300 -0.938600 
-15.575260 -17.746071 -11.025022 -0.408100 -0.523100 -0.748200 
36.997879 -27.298655 -9.264006 0.118400 -0.218800 -0.968500 
-21.480263 -7.506532 -16.775043 -0.256600 -0.125300 -0.958300 
-12.545405 -9.077468 -17.175146 0.068500 -0.427000 -0.901600 
-10.853056 6.508927 -17.704266 -0.060400 0.358400 -0.931600 
-13.567294 -7.143628 -18.249262 0.061600 -0.279900 -0.958000 
-10.564450 36.272404 -9.807877 -0.331200 -0.379500 -0.863900 
-10.097088 -7.330550 -17.713833 0.027900 -0.301400 -0.953100 
-21.489948 -17.185911 -9.593326 -0.356900 -0.721500 -0.593200 
-12.550326 -22.760637 -11.562257 -0.399900 -0.261600 -0.878400 
-11.168718 -20.624720 -12.711233 -0.249100 -0.298200 -0.921400 
-12.249461 -17.652819 -13.247674 -0.402100 -0.315400 -0.859600 
-10.183602 -18.894926 -13.463997 -0.107900 -0.313600 -0.943400 
-8.315861 -36.328320 10.734263 -0.029600 -0.999000 0.034900 
-19.391808 -8.669323 -17.055052 -0.240100 -0.251600 -0.937600 
-10.225865 -4.172610 -18.549038 -0.011700 -0.141400 -0.989900 
-9.790967 -12.505952 -16.154385 -0.179300 -0.284100 -0.941900 
24.837360 -32.902836 -18.927528 0.328100 -0.358300 -0.874100 
14.760049 -4.318550 -27.306324 0.248700 0.254100 -0.934600 
-22.544489 -11.013285 -15.479763 -0.344200 -0.414900 -0.842200 
30.520638 -16.279747 -21.208233 0.607000 -0.128400 -0.784200 
30.084108 -12.913724 -21.569811 0.478100 0.035100 -0.877600 
-13.725137 3.918128 -18.401377 -0.107600 0.237200 -0.965500 
28.992119 -25.719774 -20.366957 0.425200 -0.495500 -0.757400 
-10.636110 -14.862099 -14.986997 -0.261400 -0.363500 -0.894200 
28.404446 -9.118568 -22.076120 0.435600 0.053600 -0.898500 
28.804934 -23.883465 -21.694668 0.384900 -0.327200 -0.863000 
28.533674 -19.290421 -21.805210 0.421500 -0.114600 -0.899500 
28.592628 -16.324850 -22.443399 0.453700 -0.113800 -0.883800 
27.476286 -14.446165 -23.072535 0.407000 0.017100 -0.913200 
26.253277 -12.275473 -23.278389 0.392300 0.093400 -0.915000 
26.228447 -25.827726 -21.268415 0.345000 -0.421000 -0.838900 
25.887617 -20.637379 -22.617178 0.306700 -0.080300 -0.948400 
26.926723 -23.195881 -22.400465 0.292800 -0.183700 -0.938400 
4.161186 -4.576682 -28.139156 -0.219300 0.288200 -0.932100 
25.532873 -17.771957 -23.343143 0.306400 -0.173600 -0.935900 
26.140862 -10.577106 -23.193890 0.416200 0.031200 -0.908700 
-36.475220 11.625719 8.894467 -0.639900 -0.746600 0.181700 
25.199862 -29.181782 -20.253635 0.307900 -0.352700 -0.883600 
24.173904 -6.455259 -23.892675 0.417400 0.069000 -0.906100 
15.976098 -34.813446 2.336999 -0.577000 -0.815800 0.038500 
14.604210 -33.625626 2.398349 -0.346700 -0.937900 0.005100 
24.847118 -27.351109 -21.360628 0.315700 -0.386000 -0.866800 
23.248062 -23.716724 -23.290241 0.237300 -0.219600 -0.946300 
23.765869 -11.612940 -24.260042 0.454400 -0.000400 -0.890800 
23.704235 -15.980426 -23.970428 0.203900 -0.205500 -0.957200 
24.186546 -14.568920 -24.361624 0.303600 -0.098400 -0.947700 
23.239166 -8.595762 -24.635475 0.461900 0.073600 -0.883800 
23.204035 -30.032354 -20.385431 0.096700 -0.247800 -0.963900 
21.722622 -29.497471 -20.536974 0.096000 -0.425700 -0.899700 
22.911312 -26.974159 -22.080082 0.186400 -0.456400 -0.870000 
23.008867 -21.977371 -23.426880 0.242900 -0.060700 -0.968100 
21.397663 -19.270285 -24.111235 0.271000 -0.248400 -0.929900 
22.666206 -18.620443 -24.114552 0.335300 -0.443100 -0.831400 
19.930681 -31.607491 -19.869131 0.110200 -0.192100 -0.975100 
20.594303 -17.279472 -24.967550 0.289100 -0.096500 -0.952400 
19.456596 -33.324631 -19.931904 0.164300 -0.080100 -0.983100 
20.077345 -15.580512 -25.068039 0.241400 -0.169900 -0.955400 
20.720268 -14.054168 -25.544914 0.267600 -0.258200 -0.928300 
22.071619 -11.948346 -25.468651 0.472500 -0.143100 -0.869600 
21.221527 -5.367280 -25.127352 0.355000 0.103600 -0.929100 
20.812016 -3.642582 -25.197212 0.278300 0.124300 -0.952400 
20.387598 -25.943295 -22.901344 0.203700 -0.349700 -0.914500 
20.059927 -21.499748 -23.971985 0.256700 -0.209700 -0.943400 
21.382399 -8.867731 -25.658463 0.361100 0.076700 -0.929300 
20.921942 -23.523182 -23.766407 -0.042500 -0.214100 -0.975900 
19.714279 -12.270895 -26.161196 0.233900 -0.107900 -0.966200 
19.791582 -9.712940 -26.075577 0.255900 0.029800 -0.966200 
19.452024 -29.045265 -21.503124 0.212700 -0.634000 -0.743500 
19.059973 -27.652496 -22.845310 0.335600 -0.484600 -0.807800 
18.807541 -20.255186 -24.918369 0.295000 -0.229100 -0.927600 
17.934433 -5.713607 -26.332827 0.359700 0.139800 -0.922500 
17.276424 -14.268607 -26.107264 0.211300 -0.235700 -0.948500 
17.593525 -26.299088 -23.644192 0.211400 -0.175800 -0.961400 
17.177149 -24.808517 -23.738028 0.206100 -0.202600 -0.957300 
18.106920 -23.227608 -24.230368 0.213300 -0.303200 -0.928700 
16.684471 -30.492317 -20.504381 0.123800 -0.454200 -0.882300 
16.696297 -9.164435 -26.898973 0.296700 -0.044400 -0.953900 
16.243692 -29.302345 -21.814699 0.121500 -0.713600 -0.690000 
16.111832 -20.833832 -25.446280 0.222000 -0.266900 -0.937800 
16.301756 -17.793505 -26.124285 0.222300 -0.050800 -0.973600 
14.066360 -33.486546 -20.677452 0.125200 -0.126400 -0.984000 
15.799435 -27.837769 -23.387087 0.117300 -0.514600 -0.849400 
15.469723 -12.176489 -26.962042 0.228200 -0.155200 -0.961100 
16.565178 -6.760862 -27.258123 0.415400 0.034700 -0.909000 
14.176388 -16.557762 -26.351877 0.235800 -0.062200 -0.969800 
12.053310 -31.635330 -20.976492 0.142300 -0.074200 -0.987000 
14.632555 -25.407883 -24.304491 0.154100 -0.306700 -0.939200 
14.175343 -6.852574 -27.910070 0.227200 0.040600 -0.973000 
13.681885 -23.115913 -25.133862 0.165700 -0.281700 -0.945100 
13.615435 -9.570540 -27.915890 0.206600 -0.100800 -0.973200 
13.266409 -14.819911 -26.989817 0.224300 -0.175600 -0.958600 
11.956135 -30.465855 -21.113773 0.111000 -0.467400 -0.877000 
11.544619 -28.295174 -23.358707 0.006100 -0.513000 -0.858400 
13.140235 -20.375210 -26.247229 0.112300 -0.288000 -0.951000 
12.391345 -11.649517 -27.764027 0.188500 -0.144400 -0.971400 
4.769653 -33.690617 -15.762205 -0.071900 -0.813500 0.577100 
11.871056 -29.440052 -22.494371 0.030600 -0.712100 -0.701400 
11.913589 -26.621803 -24.072563 0.083100 -0.435000 -0.896500 
11.705599 -18.128244 -26.940018 0.180400 -0.163500 -0.969900 
11.166702 -23.289749 -25.622118 0.200700 -0.235400 -0.950900 
