15.590290 0.840157 5.777640 0.766977 -1.816085 5.944867 
-40.597088 -8.533548 0.336166 2.206767 -5.841037 0.354354 
-40.831387 -8.509986 -0.782570 2.355078 -5.483216 -1.770236 
-0.317394 -5.223575 3.973093 1.371194 -4.891122 3.669032 
-0.157139 -5.968917 2.798647 0.833850 -5.421302 3.028888 
47.825447 -9.000456 -3.304721 5.469617 0.522610 2.336531 
47.756832 -8.468764 -3.491192 4.922031 2.679375 1.596869 
47.887737 -8.547551 -4.179522 5.441664 2.556939 0.469277 
-0.667838 -6.818310 -0.714548 2.372482 -5.439003 -1.328008 
-0.155087 13.265751 -5.603351 0.285387 4.420014 -4.345756 
0.836295 13.353942 -5.457857 0.266708 3.826703 -4.941530 
-7.391374 13.757799 -5.088550 -0.337722 4.545422 -4.318797 
4.866801 21.990627 -0.557065 2.422999 4.690062 -2.728697 
36.283974 -4.210254 -2.979352 -1.183825 -0.258006 -6.151759 
36.387371 -2.600224 -2.934342 -0.305101 0.462547 -6.249841 
35.374527 -2.870872 -2.889117 -0.212569 -0.028028 -6.276775 
-40.727272 -7.374069 -2.582588 1.591799 -3.985251 -4.531734 
-40.831387 -7.999909 -1.878932 1.698644 -5.087435 -3.216048 
39.105762 -6.144338 5.919541 -5.320028 -2.161602 2.365086 
31.512157 5.251968 -0.818296 2.808106 5.196445 -1.954279 
-40.228912 -7.993909 1.829626 1.626070 -5.147767 3.076941 
5.370039 21.797901 -0.349399 4.077535 2.505707 -1.693132 
2.152128 13.288166 5.537623 1.080761 3.637450 4.856494 
2.722470 12.583628 5.795419 1.316829 3.240306 5.215018 
1.961597 12.334985 6.101896 0.865419 3.144559 5.366414 
6.591624 14.815116 2.878917 1.791198 5.004642 3.291764 
5.692043 14.744483 3.241004 0.943822 4.691491 4.060704 
4.767289 15.814630 2.371209 1.693972 3.817282 4.628685 
4.484156 14.702084 3.487793 1.262641 4.414970 4.210046 
4.769889 14.302816 3.876791 0.889340 4.389636 4.392341 
3.712330 14.514343 4.021205 1.803148 4.163895 4.342026 
46.942822 -7.591510 1.654162 5.390189 3.093590 -0.324494 
47.209473 -8.344702 1.707019 6.086928 1.081474 -0.809388 
47.538391 -8.386850 3.105286 5.558148 2.258739 -1.458806 
24.427252 -5.161068 1.016404 -0.649728 -6.009497 1.298268 
25.059874 -4.933908 1.797316 -0.318832 -5.327161 2.991970 
27.170916 -4.976299 1.773673 -0.518588 -5.150499 3.475725 
1.199527 -3.647594 5.190876 0.459205 -4.312878 4.502764 
3.452985 -4.073159 4.786604 0.476153 -4.412701 4.388947 
1.320578 -4.073690 4.802913 0.479694 -4.411594 4.425379 
-40.128708 -7.032835 2.943529 0.903626 -4.233521 4.498410 
26.403282 -5.235948 0.980062 -0.586747 -6.022774 1.589555 
-40.831387 -5.984665 -3.576440 0.062048 -3.291452 -5.318210 
-40.831387 -5.134679 -4.086209 -1.524017 -3.087505 -5.219841 
-41.112499 -6.002587 3.762259 0.422242 -2.627283 5.656840 
-40.831421 -5.172085 4.098877 -0.749603 -2.555035 5.665961 
-41.392765 -4.183783 -4.397103 -2.378464 -1.867019 -5.256010 
13.288475 -3.951566 -2.575675 0.362431 -5.385006 -2.924119 
13.388448 -4.195069 -1.814510 0.367093 -6.055834 -1.438244 
14.846265 -4.001866 -1.850293 0.767563 -5.750115 -2.293580 
42.122856 -7.273561 10.176811 -4.379071 -0.014433 4.392274 
42.665298 -7.341277 10.764880 -3.838190 0.735358 4.680467 
42.578197 -8.195710 10.623535 -4.525388 -1.242439 3.929354 
41.337902 -3.550210 -2.885617 2.722532 5.355863 -1.816184 
40.181061 -3.026484 -2.893645 2.122078 5.040331 -2.967577 
36.209270 -5.273938 2.840515 -2.103543 -2.524122 5.277794 
36.266052 -4.303998 3.111425 -1.538436 -0.731610 6.017293 
37.065525 -5.262066 3.273460 -3.268918 -1.434383 5.122554 
-2.279682 6.510345 8.291494 1.349733 1.885200 5.816746 
-40.470402 -4.484212 -4.571723 -1.375200 -1.971440 -5.703516 
-40.737640 -3.425794 -4.735755 -1.669390 -0.796897 -5.953323 
-41.545746 -2.939636 4.667741 -2.430735 -0.438320 5.699518 
-41.555851 -3.830699 4.535378 -2.272697 -1.674566 5.400851 
39.431427 -2.348629 -2.587276 2.279715 3.534798 -4.592350 
38.995892 -2.926908 -3.201184 0.513976 4.276109 -4.490793 
35.499004 0.593514 -2.559852 1.833047 1.943007 -5.648441 
36.413548 -1.334429 -2.813949 0.785488 1.093880 -6.109984 
36.536449 -0.361818 -2.533995 1.850755 1.941791 -5.653584 
-40.325085 -3.135970 4.995180 -1.622308 -1.268564 5.918041 
-41.538223 -2.308921 -4.528341 -2.696039 -0.148090 -5.622268 
-40.737640 -2.400100 -4.807423 -1.970636 -0.553900 -5.936785 
36.268131 1.782729 -0.870065 3.510478 4.682663 -2.137582 
37.081501 1.275327 -0.791379 3.551625 4.968053 -0.980862 
36.825321 1.560771 0.381213 3.508403 4.859141 0.903202 
2.356303 -5.041547 -3.532870 0.772179 -4.886834 -3.856485 
3.046939 -5.435692 -2.773487 1.151547 -5.293270 -3.163110 
-40.719719 -2.324288 4.975317 -2.106070 -0.484276 5.893329 
1.501848 21.197250 -1.644986 -0.917007 2.245295 -5.618468 
1.187323 20.295135 -1.791650 -0.597601 1.043176 -6.143924 
4.241938 15.704280 2.605128 1.748489 3.674662 4.650533 
-40.429577 -1.107124 -5.021847 -2.653674 -0.081429 -5.680476 
0.282414 8.662439 -7.817945 0.324018 0.769144 -6.182557 
0.437035 6.120533 -7.837927 0.343585 0.124087 -6.262312 
2.499844 7.493609 -7.824651 0.332330 0.659609 -6.199457 
-40.385170 -1.211213 5.195826 -2.707038 -0.225267 5.655702 
-41.415306 -0.565918 -4.529141 -3.195630 0.718991 -5.283705 
21.386946 7.088870 -4.407685 1.784035 2.657305 -5.255833 
14.895990 9.515167 4.773199 1.481441 3.580507 4.935231 
13.189502 9.196981 5.578186 1.479045 2.903178 5.334307 
13.732852 10.383478 4.599850 1.850814 3.717091 4.678663 
5.596921 15.833430 1.932711 2.817337 4.452846 3.297382 
4.706268 16.666542 1.879890 2.914314 2.473241 4.893753 
5.508721 16.669458 1.073814 4.843360 2.648431 2.795830 
-40.176765 -0.367319 5.294097 -2.902012 0.647466 5.504828 
47.214703 -7.546072 11.910445 2.023389 5.495886 2.114891 
46.732479 -7.581847 12.386185 1.068923 5.221213 2.903616 
46.224846 -6.970666 10.920589 1.648075 5.734580 1.825049 
-41.376102 0.200153 -4.420187 -3.267310 1.387024 -4.981308 
-41.046936 1.316936 -4.073598 -3.225326 2.227151 -4.904583 
-40.665611 0.749099 -4.621158 -2.932201 1.883486 -5.177317 
13.610929 6.447418 6.297086 2.158816 1.380036 5.701020 
14.435089 6.300961 6.110795 1.016106 0.724952 6.142159 
14.533739 4.639849 6.286124 1.937806 0.502332 5.926004 
-41.133911 0.329371 4.670019 -3.166638 1.644603 5.086878 
36.133308 2.136204 -0.417113 3.500660 4.613852 -1.019135 
36.492527 1.803708 0.083953 4.004203 4.689543 0.125865 
6.574667 12.058626 -5.384102 1.293495 3.359918 -5.118028 
5.908017 10.920035 -6.171107 0.979583 3.066869 -5.394625 
6.816841 11.640746 -5.564165 1.224908 3.232679 -5.242900 
-41.499855 1.906586 3.706309 -3.608981 2.416120 4.458493 
36.374649 -6.332400 2.134537 -2.514297 -4.166090 3.909655 
37.434967 -6.745376 2.610493 -2.932849 -4.327221 3.324681 
37.270168 -6.975216 2.011894 -2.703106 -4.962614 2.732090 
8.450538 11.684860 5.354590 1.040299 3.708157 4.957991 
9.675866 11.331961 5.300329 1.559869 3.500277 4.966731 
9.141120 11.272507 5.542375 1.303212 3.404978 4.957839 
-41.459778 2.053521 -3.513284 -3.656332 2.432455 -4.375191 
8.661625 -4.293007 -2.820880 1.090961 -5.423971 -2.966394 
9.651484 -4.013171 -2.923525 1.332879 -5.297899 -3.062086 
38.546364 -3.523624 -3.774529 -1.950447 4.141677 -4.158511 
4.184257 1.217594 -7.532766 1.163552 -1.804640 -5.784469 
4.702191 1.635140 -7.506062 0.994582 -1.660856 -5.944271 
3.548548 1.792703 -7.715178 0.589785 -0.910070 -6.156646 
40.154037 -7.128142 -6.845042 -4.979521 -3.183001 -1.985921 
20.591721 9.300580 3.113706 1.703944 4.586952 3.877813 
21.405478 8.382499 3.692533 1.516633 3.373242 4.956948 
20.539944 8.547298 3.779877 1.625751 3.451612 4.973558 
-41.089134 2.882756 -3.143366 -3.594588 2.885881 -4.168107 
-40.737640 2.531261 -3.781727 -3.321298 2.491049 -4.633897 
42.456444 -6.423079 10.228975 -2.504703 2.679861 4.860724 
42.873173 -6.840202 10.747861 -2.559672 2.559757 4.816984 
-1.828510 19.054224 -1.497432 -1.997671 3.063524 -4.981286 
-2.226834 19.452536 -0.905898 -3.076545 4.214875 -3.263258 
-2.578232 18.814087 -1.257294 -2.159937 3.903116 -4.400466 
39.698692 -6.389512 -6.721607 -5.519207 -1.870518 -2.165332 
39.233456 -6.130276 -5.785499 -5.177451 -2.171583 -2.530626 
39.829113 -7.032823 -6.276134 -4.777354 -3.476350 -1.517588 
-41.432175 3.227049 2.850959 -3.786106 3.282447 3.623432 
-2.109735 18.345583 -1.778646 -1.229892 3.142612 -5.278820 
2.121582 9.272905 7.553000 0.822131 2.551375 5.637591 
0.341184 9.808865 7.478246 0.902843 2.633430 5.595201 
-41.540119 3.333735 -2.604491 -3.651008 3.282700 -3.422704 
4.702191 0.645284 -7.132788 1.312417 -2.241314 -5.715745 
2.985991 -0.275353 -7.045074 1.099812 -2.636977 -5.588235 
5.125850 -0.836107 -6.522156 1.176111 -2.776671 -5.405007 
-41.112499 3.895974 -2.176873 -3.771549 3.771556 -3.144237 
-40.831387 3.614851 -2.885615 -3.565523 3.439036 -3.822335 
-40.736450 3.773933 2.981585 -3.607609 3.499731 3.737915 
-41.370541 4.153958 1.927928 -3.901970 3.992513 2.335267 
6.917021 1.249216 7.056216 0.856403 -1.335299 6.068634 
5.989044 -0.001226 6.809427 0.970345 -2.168278 5.808771 
22.397194 -0.982123 -4.539654 0.418758 -2.267022 -5.784049 
22.442228 -1.796947 -4.133098 0.192193 -2.697681 -5.661128 
23.484507 -1.338361 -4.203225 0.992559 -1.924189 -5.880958 
-41.446373 4.229847 -1.520899 -3.966334 4.071540 -2.107339 
-41.505795 4.381353 -0.756790 -4.257318 4.464370 -0.818546 
6.910828 -5.343714 0.111040 0.907606 -6.205692 0.011852 
-40.807922 4.581244 -1.872295 -3.775343 4.191220 -2.581965 
-41.446014 4.485636 0.602777 -4.269334 4.443159 0.659233 
21.902668 -3.015178 -3.517102 -0.640771 -3.697366 -4.842882 
-40.616573 5.217579 0.062930 -3.417479 5.138070 -0.001181 
6.681904 -5.329683 -0.887987 0.823091 -6.174138 -0.729610 
47.425549 -8.448415 -2.937387 5.422226 2.261703 1.884628 
47.466129 -9.435204 -2.721602 5.498495 -1.064341 2.564854 
5.527783 2.784917 -7.717572 0.791186 -0.755426 -6.121366 
5.694995 4.493901 -7.771003 0.789828 -0.151247 -6.216388 
4.702191 3.614852 -7.834887 0.273440 -0.259001 -6.256221 
-1.630554 -6.845401 1.616722 1.146845 -5.734337 2.078915 
-40.760509 4.533831 2.071685 -3.909594 4.088614 2.622530 
8.149568 7.098383 -6.847900 0.177190 0.302035 -6.271019 
27.635048 -0.320213 4.042926 0.062511 -0.182962 6.279116 
29.448690 -0.344576 4.043376 0.345413 -0.352472 6.235667 
29.002594 -1.297703 3.950883 0.327800 -0.968582 6.182296 
-39.127434 -7.962552 -1.026497 1.716340 -5.674687 -1.877401 
-39.459911 -7.833699 -1.617608 1.588054 -5.070046 -2.965576 
37.217644 -6.933411 -2.009108 -2.104325 -4.843861 -3.317685 
38.013599 -6.976727 -2.535401 -2.782902 -4.654018 -3.118104 
37.367577 -6.188182 -2.856611 -3.054885 -3.275830 -4.276423 
-39.465710 -8.227125 0.050074 1.701092 -5.984395 -0.006338 
-39.911797 -8.193132 1.003525 1.733092 -5.847776 1.461852 
50.785126 -10.250645 -12.776656 5.285724 1.322286 -1.881418 
50.865025 -9.821561 -12.215838 4.671760 2.494418 -1.073255 
50.264458 -9.568535 -12.696574 3.324030 4.625312 -2.380491 
10.875653 -4.574124 0.336166 2.010872 -5.929421 -0.052129 
11.752654 -4.386474 0.969578 0.863863 -6.186964 0.483739 
40.316360 -2.343978 -1.831716 3.710756 4.232163 -2.683740 
41.217136 -3.094883 -1.895761 3.295924 4.931405 -2.024430 
47.020691 -7.572590 -3.875474 4.620241 4.194335 0.537616 
46.961853 -7.616061 -2.780156 5.263295 3.355618 0.288660 
13.533393 -4.216464 0.994643 0.291900 -6.222916 0.753457 
11.160378 -4.280806 1.986713 0.856839 -5.931486 1.827713 
13.400094 -4.093155 1.852828 0.756293 -5.989677 1.597350 
-39.841526 -7.075089 -2.579654 0.971201 -4.478707 -4.272327 
-39.618542 -6.544917 -3.084518 0.145237 -4.455311 -4.417910 
-39.360695 -7.833519 1.722940 1.353287 -5.421711 2.644548 
39.547245 -1.167831 -0.838197 4.434576 4.263030 -1.156132 
40.145107 -1.785267 -1.185273 4.197103 4.200216 -1.608506 
40.102554 -1.568727 0.083952 4.456541 4.368238 -0.010849 
5.789657 8.531507 -6.900955 0.795268 1.106654 -6.112324 
6.793567 9.460244 -6.715455 0.547312 1.554046 -6.021133 
4.936012 9.560324 -6.813411 0.655657 1.503481 -6.062199 
-39.841526 -5.984665 -3.630188 -0.429538 -4.180943 -4.655424 
-40.269871 -5.054220 -4.387250 -1.310903 -3.152555 -4.996671 
-39.908703 -6.097662 3.662765 -0.139424 -3.750059 5.010133 
-4.655847 8.671501 -7.922635 0.183608 1.535010 -6.086350 
-4.808037 7.900499 -8.159686 0.307628 2.289970 -5.826186 
-3.213509 7.412808 -8.167004 1.001623 2.281454 -5.744555 
-39.820877 -5.116086 4.338808 -1.172957 -3.357846 5.168276 
20.379347 3.547145 -5.197418 2.220372 0.766200 -5.783520 
19.903580 3.045508 5.346045 2.125025 -0.231849 5.893286 
20.665621 2.780638 5.127302 1.128857 -0.054508 6.161930 
-39.671379 -5.007607 -4.483694 -0.443005 -3.024981 -5.337089 
44.622078 -10.904428 7.363500 -2.872156 -5.406259 0.212076 
45.380272 -10.956829 9.213665 -2.599350 -5.659924 0.750633 
14.111996 -3.815198 -2.641222 1.159333 -5.002304 -3.257403 
13.764549 4.057549 6.663870 2.031060 -0.095996 5.886676 
13.962353 4.541092 6.576635 2.370404 0.471945 5.720053 
43.363567 -9.843990 -6.945024 -4.088945 -4.765540 0.026642 
43.225193 -9.712303 -5.914640 -3.371680 -5.268727 0.072206 
44.537758 -10.758589 -5.437237 -3.169819 -5.119933 1.044840 
-39.841526 -3.278302 -4.936986 -1.316388 -1.240146 -6.005074 
-40.000690 -4.268162 4.750821 -1.297700 -2.173259 5.713661 
46.485222 -6.991967 6.667306 3.829737 4.963631 -0.266816 
46.062817 -6.643909 4.153975 3.624229 5.074271 0.194790 
47.018051 -7.480028 6.540135 4.358565 4.489478 -0.469124 
-39.841526 -2.187286 -5.139316 -2.383752 -1.130062 -5.681951 
50.197147 -9.313060 11.014223 4.789400 3.477816 -1.799408 
50.438671 -10.222347 10.743010 5.457288 0.450512 -2.806991 
50.871323 -9.884091 11.528574 5.069817 1.693379 -1.594239 
-39.754017 -2.324288 5.315632 -2.225006 -1.193447 5.740991 
14.561189 3.563084 -6.159653 1.615503 -0.701823 -5.997209 
14.253073 3.084896 -6.126937 1.649707 -0.932442 -5.891912 
15.584755 3.042758 -5.947783 0.743101 -0.282702 -6.222414 
33.331741 2.413188 2.707309 1.472948 2.709882 5.326388 
7.288669 3.167373 -7.147223 1.690639 -1.154081 -5.827357 
8.314096 1.691318 -6.772822 0.845410 -1.078685 -6.110744 
-40.033955 -0.035863 -5.149458 -2.844351 1.017414 -5.483485 
24.490135 -0.503345 4.270069 1.083718 -1.154642 6.060892 
24.979422 0.829537 4.388499 1.869022 -0.875512 5.926025 
25.641132 0.008395 4.137570 0.842436 -0.467237 6.194192 
27.538368 -5.431896 1.039120 -1.639433 -5.404441 2.643385 
28.242451 -5.095387 1.829356 -1.123350 -4.823702 3.836667 
29.448690 -5.293847 2.063662 -1.570789 -4.284110 4.298693 
5.685589 6.745224 -7.483660 1.806636 1.898416 -5.679728 
-39.789757 0.593512 5.253966 -2.890767 1.645709 5.327994 
6.681904 -0.063448 -6.510168 0.607188 -2.666456 -5.651766 
6.392669 -0.937060 -6.119685 0.886042 -2.725059 -5.583256 
7.650605 -0.957157 -5.966460 0.775077 -2.702272 -5.615322 
-1.166098 20.371519 1.015314 -3.708914 3.673865 3.167094 
-0.754175 20.948732 1.026070 -3.311003 3.588745 2.865680 
-40.152267 2.149148 -4.282477 -3.406934 2.157765 -4.797160 
-39.885685 1.739837 -4.672762 -3.160455 1.939861 -5.056406 
-1.851973 2.250133 8.377650 1.739319 -1.352515 5.857862 
2.083755 0.172523 -7.539210 0.987048 -2.052674 -5.672179 
1.711459 -0.957490 -6.956172 0.806123 -2.691753 -5.613821 
26.432289 -5.300775 -0.812171 -1.014484 -6.018141 -1.356279 
26.450209 -5.376502 0.083950 -1.012590 -6.164988 0.291875 
27.239620 -5.596839 0.016243 -2.290589 -5.770658 0.194400 
40.234207 -6.303697 -7.691564 -4.880804 -1.076850 -3.621817 
39.844471 -6.258237 -7.333751 -4.611088 -1.223871 -2.856666 
-39.947330 3.488236 3.920455 -3.649795 2.850594 4.218668 
-39.949768 1.652650 4.806218 -3.161199 1.987066 5.042485 
40.651924 -7.343539 -7.747293 -5.115706 -2.679574 -2.341417 
45.286453 -6.974527 11.271400 0.209010 5.264637 3.345783 
45.219143 -6.538099 10.576717 1.062035 5.459109 2.828670 
40.348202 -4.004327 5.270643 -0.470137 5.757720 2.398330 
39.347290 -3.533393 4.152950 -1.091295 4.924027 3.667891 
40.525097 -3.517094 4.352120 0.756336 5.653900 2.076502 
-40.503342 3.286810 -3.547430 -3.519456 3.017339 -4.010082 
-40.122639 3.895976 -3.166729 -3.586929 3.340425 -3.711807 
-39.818058 3.591389 -3.852008 -3.561015 2.931115 -4.203695 
31.581125 -2.476999 3.256388 0.939639 -0.977690 6.115617 
31.786100 -1.073666 3.369294 2.151513 -0.290671 5.884037 
32.513432 -2.031894 3.140010 0.991863 -0.188980 6.197159 
32.928268 -3.233970 3.067343 0.235736 -0.459396 6.254735 
5.911302 16.450308 0.119796 5.119517 3.391300 0.510359 
5.518945 17.663994 0.139308 6.146755 0.898168 0.275994 
5.446755 17.454914 -0.624774 5.547666 1.356553 -2.336532 
15.843983 -1.684285 -4.041351 0.745813 -3.894165 -4.767429 
15.642418 -2.384459 -3.622068 1.503694 -3.820357 -4.730874 
16.580511 -2.136806 -3.634245 0.429387 -4.252911 -4.589958 
-40.550259 4.323593 -2.604490 -3.523353 3.579061 -3.404035 
-39.854626 5.353795 -1.651111 -2.897670 5.150905 -1.934133 
-39.841526 4.604706 -2.885614 -3.359243 4.033729 -3.377535 
47.448311 -9.435200 -13.538344 -0.722768 0.711221 -5.912753 
47.353279 -10.299442 -13.404017 -1.725533 -2.216137 -5.326864 
48.273846 -10.167295 -13.608624 -0.267148 -0.620746 -5.980160 
-39.841526 4.582530 3.064610 -3.628102 3.743442 3.482243 
-40.370403 5.079454 1.981730 -3.330882 4.337369 1.968831 
3.625831 2.937809 -7.815355 0.231833 -0.431042 -6.250305 
38.295856 -7.929244 1.022038 -1.937052 -5.729826 1.448027 
38.598370 -8.117595 0.342691 -1.300293 -6.072550 0.246157 
37.605869 -7.841782 0.274471 -2.628964 -5.449630 0.540482 
-40.386242 5.149422 -1.450618 -3.149153 4.871598 -1.813060 
-40.450172 5.244561 -0.679678 -3.308521 5.228035 -0.745711 
19.755682 -2.497957 -3.266559 -0.852985 -4.499248 -4.221194 
19.550093 -3.072913 -2.698138 -0.430344 -4.579635 -4.262837 
-1.270012 17.483427 2.299839 -0.903164 2.475084 5.686165 
-2.956774 17.552944 1.991814 -1.010008 2.773355 5.541075 
-2.226834 18.454266 1.685346 -1.867446 3.013476 5.115608 
-0.955857 2.624996 -8.169759 2.211695 -0.211587 -5.860013 
-1.288742 1.686908 -8.178967 1.350549 -1.476122 -5.914710 
-0.188126 1.633511 -7.933444 0.969488 -0.528604 -6.171898 
-39.214275 5.906096 -0.140812 -2.382400 5.770420 -0.169200 
14.582870 6.584419 -5.891011 0.896154 0.704132 -6.165703 
15.302964 4.790549 -5.914087 1.088961 0.421663 -6.150452 
15.381047 6.624839 -5.829748 0.571389 0.894038 -6.161460 
-40.443340 5.206401 1.203230 -3.413976 5.009376 1.078312 
41.593994 -7.877072 9.368305 -4.695036 -2.801485 2.641953 
42.019684 -8.503366 9.032911 -4.505539 -4.054394 1.624852 
6.216268 -1.992265 -5.620113 0.628735 -3.467734 -5.162622 
7.389415 -2.019346 -5.524128 0.595629 -3.293968 -5.229221 
-39.753925 5.260382 2.196902 -2.761367 5.091548 2.324120 
8.058866 0.166925 -6.534999 1.153481 -2.254353 -5.609943 
6.630135 1.686908 -7.189108 1.409714 -1.588521 -5.866415 
39.382931 -4.112156 5.050053 -2.286277 4.952378 3.020335 
-38.284679 -7.804395 -0.759440 2.351768 -5.280253 -1.587806 
-38.851662 -7.484301 -1.736588 1.538355 -5.217899 -3.087099 
-2.341792 -5.285320 -4.405132 0.120856 -4.590778 -4.246611 
-3.952934 -5.992118 -3.511217 0.279210 -5.092288 -3.648651 
-2.226834 -5.955658 -3.547432 0.254263 -5.349729 -3.153643 
16.580511 11.821446 1.073812 2.150125 5.729116 1.348284 
16.036161 12.219318 0.459760 2.124115 5.687506 0.647576 
16.307430 12.117610 -0.066470 2.365499 5.587194 -0.494337 
16.809858 11.836684 0.151663 2.381783 5.784281 0.055921 
24.499388 4.467708 4.317374 2.153832 1.486786 5.675007 
25.422197 2.660137 4.306411 1.999514 0.581599 5.903113 
23.956713 4.462909 4.607318 2.266527 1.599329 5.556510 
-38.334087 -7.855038 0.675583 2.009629 -5.789040 0.777106 
43.446304 -7.412935 11.218831 -2.711784 2.202711 5.075749 
43.374043 -6.632536 10.764880 -1.025458 3.887196 4.654985 
44.296593 -7.075102 11.278321 -1.053638 4.312160 4.402586 
-38.734562 -7.390666 2.180761 1.447318 -5.181213 3.233251 
-38.291374 -7.465682 1.831993 1.211841 -5.673770 2.345705 
6.095569 -4.951818 2.740993 0.960427 -5.495070 2.823299 
6.494523 -4.116611 3.855994 0.859146 -4.642432 4.101651 
-2.611550 -0.154366 -7.856235 0.504772 -1.938408 -5.936697 
-3.142660 -1.078198 -7.493544 0.568120 -2.656762 -5.659510 
-0.906303 -0.859561 -7.526546 0.931994 -2.347590 -5.544212 
-38.673939 -6.952770 -2.552897 0.387388 -5.182400 -3.495840 
14.938767 0.103426 5.632011 0.945384 -2.545351 5.609853 
-38.650150 -6.992723 2.763853 0.454027 -4.911774 3.835574 
-38.487278 -6.542749 3.261499 -0.072190 -4.653768 4.214315 
0.742748 13.167448 5.730889 0.421476 3.747436 5.008160 
-38.795872 -5.915960 -3.778922 -0.135349 -4.267794 -4.575098 
8.661625 -0.308734 -6.107103 1.216623 -2.662525 -5.554188 
8.629081 -1.373740 -5.606532 1.286553 -2.852693 -5.431597 
9.841125 -1.073392 -5.532804 0.693445 -3.218692 -5.326870 
-0.145376 3.041674 8.091362 0.975937 -0.161512 6.197224 
5.692043 -1.262761 -6.112341 1.127766 -2.985962 -5.402692 
-2.875881 8.041223 -7.938916 0.557807 1.351764 -6.101490 
-38.198807 -4.964267 4.737265 -0.628758 -3.503001 5.116507 
26.479109 6.644501 2.825850 1.761798 3.577999 4.847044 
27.277512 6.490285 2.688419 1.777244 3.680208 4.731362 
27.468971 5.548237 3.253772 1.776172 3.273285 5.048986 
-0.480529 -4.353266 5.082498 1.611958 -4.273243 4.274470 
0.104285 -3.665540 5.384626 1.476237 -3.896677 4.606802 
-38.851662 -4.174414 -4.843252 -0.863929 -2.216727 -5.801137 
-39.684166 -4.867418 4.565590 -1.522256 -3.066091 5.083937 
37.367577 -7.525476 -0.870068 -2.178182 -5.575653 -1.796812 
38.369144 -7.518004 -1.836902 -2.369070 -5.253184 -2.498923 
22.435083 9.035721 -2.395869 2.403170 4.562749 -3.508955 
22.537586 8.557299 -2.856606 2.209298 4.290349 -4.010275 
23.461620 8.799219 -1.911696 2.426844 4.929017 -3.028671 
-38.927490 -4.210256 4.975317 -1.220693 -2.391279 5.672960 
-38.903431 -3.202972 -5.191092 -1.813149 -2.081877 -5.631945 
-38.744625 -3.247499 5.415246 -1.886455 -2.105803 5.602410 
-39.382015 -2.197042 -5.386779 -2.416749 -1.563733 -5.484758 
-38.972607 -2.269433 5.667523 -1.719094 -1.084351 5.829978 
-39.404579 -1.602682 -5.487212 -2.471988 -0.804037 -5.674882 
22.032423 8.325205 3.507753 2.114376 3.554863 4.559724 
21.879719 9.340929 2.467119 2.041671 4.745425 3.470326 
-38.524071 -2.560075 -5.577120 -1.929416 -1.737093 -5.703429 
29.289526 -6.001299 1.037968 -1.158165 -5.707864 2.070114 
4.970338 17.540533 -1.207902 4.251885 1.002779 -4.477341 
4.936489 18.462681 -1.140195 4.394955 0.168558 -4.434031 
4.331110 18.779572 -1.581924 2.687495 0.060623 -5.603408 
-39.617352 -1.483301 5.590422 -2.621066 -0.782296 5.574316 
22.970577 5.427457 4.640969 1.881174 2.128629 5.527124 
-39.490116 -0.695968 -5.503779 -2.630360 0.144095 -5.661036 
24.030790 0.124027 4.564638 1.636597 -1.514484 5.859303 
-38.200554 -0.155203 -6.033303 -2.708527 0.082505 -5.662932 
-39.395515 -0.247385 5.731920 -2.681424 0.642257 5.524019 
31.280758 2.299392 -3.380399 2.287831 2.214819 -5.389035 
32.581272 2.641878 -2.635891 2.129887 2.917403 -5.107513 
-38.248650 -0.303221 6.178023 -2.747308 0.208384 5.621820 
29.608704 -5.808645 1.578184 -1.258897 -5.013238 3.330903 
-39.035622 0.443675 -5.574249 -2.844919 1.170766 -5.450484 
2.464708 -3.056384 5.765326 0.416426 -3.963750 4.818788 
4.016721 -3.057779 5.552602 1.064020 -3.506783 5.049983 
16.669071 -3.969954 -1.583047 0.240662 -5.617106 -2.670571 
20.480770 -3.969765 -1.595863 -0.504129 -5.617005 -2.650360 
20.370518 -3.561038 -2.153889 -0.716991 -5.078061 -3.577568 
17.570370 -1.006387 -4.591035 0.425519 -3.407966 -5.222123 
18.274607 -1.952161 -3.767913 -0.048798 -4.310559 -4.556608 
-38.942574 0.548917 5.749884 -2.798596 1.316862 5.451342 
-1.502339 6.111110 -8.326888 2.364158 1.721317 -5.317581 
-1.350311 6.532652 -8.065528 1.521457 1.534818 -5.840815 
6.394964 -4.636871 -3.041758 1.012904 -4.973365 -3.697551 
7.160823 -4.833774 -2.595673 1.202730 -5.171517 -3.048790 
7.671764 -4.523246 -2.776043 1.293750 -5.096935 -3.421803 
23.570511 2.080339 4.969441 1.036611 -0.129589 6.136138 
24.653017 2.077837 4.684159 2.042283 -0.094783 5.883285 
24.015472 1.050991 4.800213 1.526529 -0.915460 5.941614 
47.662125 -11.878867 8.052584 -1.293668 -5.913639 -0.653328 
47.756813 -11.817047 7.443284 0.100103 -4.866138 -2.187229 
47.266174 -11.525285 7.090538 -0.432246 -5.844861 -1.746799 
50.801952 -10.133058 12.810714 5.390677 1.410378 1.754485 
50.682987 -10.269103 13.399323 2.670715 0.276376 2.670571 
50.186104 -9.474592 12.902206 3.003497 4.371952 3.007657 
-4.779058 3.534483 -8.824480 0.060462 -0.085671 -6.280952 
-4.483289 2.671032 -8.800920 0.291995 -0.455086 -6.242589 
-2.390077 2.785421 -8.707418 0.752740 -0.700947 -6.134533 
9.941503 -2.347630 -4.559022 1.337009 -3.865501 -4.750591 
8.210200 -1.749211 -5.540004 1.244508 -2.918977 -5.347252 
-39.375778 3.176309 -4.486814 -3.374768 2.419139 -4.593575 
-39.303394 2.993317 4.770668 -3.485347 2.180010 4.668435 
42.245598 -8.955026 -7.834899 -3.623910 -4.946382 -1.257920 
42.558601 -8.957003 -8.925007 -4.567577 -4.150450 -1.008410 
42.057796 -8.452913 -8.784137 -4.220393 -4.272388 -1.825874 
-38.247681 2.289283 5.695480 -2.834277 1.780817 5.251590 
-39.109425 3.872612 -4.133222 -3.351404 2.965362 -4.353809 
-38.734562 3.497753 -4.748219 -2.983363 2.267854 -4.897367 
3.412791 -1.918208 6.315343 1.091243 -2.858704 5.483066 
2.844438 -0.964973 6.842988 0.908193 -2.441664 5.713217 
3.457917 21.151142 1.691018 0.490613 2.805012 5.385126 
3.618586 20.442394 1.876291 1.012933 1.106013 6.014885 
2.415811 20.357010 1.983724 0.104333 1.311474 6.069495 
19.822145 9.627073 2.978635 1.755234 4.940482 3.451723 
20.965107 10.222056 1.564834 1.873306 5.343211 2.517792 
5.661263 16.473070 -0.947766 4.389403 3.204559 -2.898958 
-38.814827 3.584068 4.793015 -2.986592 2.748634 4.715199 
-39.448284 4.211541 3.852128 -3.522094 3.381420 3.855390 
10.545837 12.989792 -3.404947 1.868085 4.752432 -3.393155 
10.727125 12.249056 -4.093196 1.867493 4.288753 -4.157747 
11.685036 12.760381 -2.845013 2.157796 4.949271 -3.201338 
-39.560398 4.323593 -3.594346 -3.444260 3.440933 -3.561288 
-39.109425 4.862467 -3.143365 -3.138649 4.335125 -3.167776 
-38.851662 4.604706 -3.875470 -3.190409 3.771541 -3.739862 
-38.851662 4.582530 3.987947 -3.343370 3.578237 3.909561 
-39.431709 5.093414 2.943200 -3.119513 4.401760 2.884515 
7.606262 -3.173128 -4.548213 0.427508 -4.363434 -4.454734 
-39.466652 5.219705 -2.510755 -3.093580 4.454772 -2.832836 
-38.887104 5.487795 -2.588569 -2.828975 4.902647 -2.606992 
36.335850 1.614159 1.031940 3.441762 4.502759 2.594611 
37.279968 0.917694 0.986202 3.575298 4.650549 2.125916 
37.324535 0.389133 1.749501 2.672315 3.912551 4.023632 
-39.073849 5.913783 -0.978181 -3.119776 5.331564 -1.024336 
-39.061886 5.979339 0.567839 -3.247909 5.334710 0.492896 
22.551840 6.399882 -4.240168 1.907426 2.655075 -5.356746 
-38.851662 5.813809 1.954082 -2.943743 5.219425 1.818276 
-38.799896 5.296219 3.150920 -2.782275 4.844240 2.822847 
13.624590 3.614852 -6.488782 1.685235 -0.697672 -5.986623 
-37.627502 -7.543692 0.336166 1.988937 -5.938515 -0.040781 
-37.861801 -7.547553 -0.768908 2.053906 -5.727146 -1.318426 
1.732609 -6.154128 -1.819937 0.514906 -6.049463 -1.465187 
2.211519 -5.823628 -2.595674 1.122906 -5.209761 -3.044010 
14.549642 11.528477 3.045334 1.996193 4.538768 3.839828 
13.993690 12.229389 2.560855 2.136357 4.758192 3.338548 
14.584850 12.245796 2.011900 2.315057 5.261583 2.381505 
32.208427 0.929000 -3.418640 2.747072 0.957573 -5.432245 
31.923269 -0.601963 -3.589524 2.001014 -0.709222 -5.752622 
-37.650955 -7.484400 1.284640 1.380441 -6.010988 1.108838 
15.560076 12.145833 -1.164803 2.240582 5.518172 -1.784897 
13.906742 12.792933 -0.934133 2.599197 5.589841 -1.077376 
14.720364 12.216798 -1.808150 2.159438 5.401675 -2.322968 
6.164598 -3.527759 4.437324 1.101894 -4.364985 4.293439 
-37.554928 -7.189029 -1.801703 0.558897 -5.959958 -1.840007 
32.473938 1.442042 3.128670 1.420317 0.866233 6.026822 
31.709528 1.336102 3.370465 2.361822 0.521470 5.782391 
31.428413 2.515419 3.272770 2.745800 1.969740 5.267292 
7.981708 1.683358 6.980661 0.635851 -0.760871 6.200055 
8.660473 0.860290 6.776352 0.654518 -1.752421 5.975955 
4.912945 -5.998257 0.592162 1.718608 -5.854291 0.766997 
-1.355783 13.107959 5.965411 0.132107 4.243462 4.595531 
-7.203894 13.322967 5.746739 -0.350871 4.409427 4.411737 
-0.631540 13.719409 5.294454 0.108839 4.276886 4.595405 
43.140438 -9.453713 -9.746904 -4.310760 -4.341929 -1.229057 
43.696037 -10.151628 -8.951458 -4.093410 -4.668508 -0.501512 
3.807335 -5.907301 -1.659404 1.320477 -5.568989 -2.406959 
35.464672 1.627830 1.967076 3.482998 3.839426 3.493245 
-4.422628 0.108250 8.306901 1.046979 -2.247092 5.767961 
-5.215766 0.836746 8.756109 0.784664 -1.614909 5.981798 
-3.638374 1.066957 8.570970 1.161963 -1.837716 5.861263 
32.460140 3.646917 2.083358 2.751165 3.885507 4.069797 
31.938957 4.550893 1.589645 3.100114 4.226311 3.344634 
47.931755 -8.484068 5.703495 4.904754 3.881137 -0.361635 
47.511353 -7.912262 7.105993 4.359194 4.364487 -0.989507 
9.592338 -0.055402 -6.038082 0.666627 -2.679532 -5.625307 
-37.905869 -6.035672 3.820228 -0.147698 -4.387995 4.479482 
30.917677 -5.513339 2.283145 -0.587536 -4.350353 4.348106 
18.775835 6.548902 5.263742 1.933829 2.016986 5.616437 
20.512655 5.348464 5.084147 1.165908 0.936433 6.083173 
19.550093 5.457561 5.307230 2.157923 1.237325 5.736117 
-36.382839 -5.386167 -4.235312 -0.194921 -4.365835 -4.499054 
-37.861801 -4.947892 -4.573118 -0.365249 -3.606707 -5.097204 
-37.861801 -4.144822 -5.076064 -1.488729 -3.257088 -5.129488 
40.826149 -5.834415 8.774089 -3.799407 2.120087 3.965800 
41.153790 -6.387249 9.164194 -4.457689 0.523158 4.226414 
41.430950 -5.643966 9.064222 -2.704596 3.710163 3.968754 
-37.796471 -4.232333 5.235550 -1.284935 -3.353695 5.130397 
-38.063267 -3.271624 -5.496346 -1.786208 -2.238863 -5.520009 
-37.721004 -3.861065 5.549047 -1.636207 -2.940234 5.103902 
41.058800 -8.466334 -4.574901 -4.069389 -4.777273 -0.105650 
41.654655 -8.925226 -5.855187 -3.319280 -5.276448 -0.185022 
50.259506 -11.256448 12.975521 2.872979 -4.167066 2.863723 
49.860600 -10.840216 13.531227 1.362043 -2.324860 5.080623 
50.559444 -10.668676 13.276149 3.608370 -2.134136 3.610598 
33.329636 -5.611166 -2.061200 -0.321321 -4.188913 -4.657687 
32.839050 -6.051681 -1.549703 -0.557562 -5.173285 -3.400303 
34.368187 -6.151445 -1.663004 -0.992411 -4.728229 -3.974961 
10.852181 -4.514832 1.284641 1.486922 -5.973369 1.182637 
8.827433 14.221665 2.026481 1.790156 5.589843 2.176187 
5.515687 12.207598 5.651482 0.612960 3.223449 5.294056 
-38.198700 -2.805986 5.775381 -1.903607 -1.821049 5.688807 
6.469224 15.712263 -0.952149 3.648522 4.721947 -1.786480 
7.035398 4.035364 7.325758 2.153118 -0.214941 5.884410 
6.892748 2.414149 7.223778 1.405538 -0.805641 6.056196 
-37.861801 -1.197430 -6.129171 -2.571541 -1.066541 -5.603074 
-37.774296 -1.334432 6.305490 -2.392656 -1.266100 5.652894 
22.029137 6.245764 4.594826 1.559967 2.361969 5.556841 
24.021009 5.516639 4.136807 1.866451 2.231463 5.550588 
50.121914 -9.079060 11.962213 3.742544 4.795156 0.876908 
50.760380 -9.611113 11.962213 4.819093 3.377868 0.048659 
50.617844 -9.539446 12.463278 4.099461 3.730498 1.775243 
23.509525 6.644501 3.815706 1.926737 2.716388 5.321624 
-37.443352 0.242516 -6.405435 -2.383480 0.569064 -5.701921 
29.448690 -4.427323 -2.639044 -1.122486 -3.709318 -4.907837 
27.961056 -4.055380 -2.674882 -0.451851 -4.365029 -4.484132 
28.549290 -4.549572 -2.245979 -0.988888 -4.378548 -4.347784 
-37.825974 0.645280 6.275007 -2.736520 1.176692 5.522350 
35.323120 -7.090236 0.083950 -0.617718 -6.179877 0.005913 
34.418785 -7.052329 0.104740 -0.669221 -6.072182 0.444485 
34.339592 -6.914637 0.653002 -1.076404 -5.456873 2.446926 
8.614248 9.906191 6.274982 0.795441 2.838119 5.547604 
9.651484 10.568087 5.759590 1.323509 2.865814 5.426458 
-38.404362 2.173961 -5.450724 -2.924586 1.748170 -5.243519 
34.554710 -5.591826 2.245903 -0.432654 -4.119047 4.712708 
34.965958 -4.985659 2.730977 -0.528726 -2.713602 5.569751 
8.531268 -5.209317 -0.812711 0.832018 -6.063975 -1.076463 
9.067166 -5.228892 -0.009479 1.025285 -6.065082 -0.026376 
41.781105 -8.983773 -0.242246 -2.421717 -5.777532 -0.136847 
42.990425 -9.587072 4.122736 -3.034907 -5.492169 -0.097687 
-36.912071 0.692692 6.668532 -1.843750 1.101023 5.860797 
15.607444 11.761317 2.105005 1.757241 5.387052 2.684641 
15.923534 11.270494 2.822107 1.371410 4.869011 3.654173 
-38.136513 3.340739 -5.101622 -2.667925 2.328300 -5.184386 
-37.286358 2.563193 -5.855497 -2.654682 2.063212 -5.307544 
8.627217 5.573544 7.013126 0.212292 0.044414 6.275652 
37.935642 -7.944813 -0.409430 -2.051641 -5.633090 -0.985609 
14.009243 -3.712456 2.461976 1.193322 -5.353730 3.040653 
14.718887 -3.997584 1.739969 0.387084 -5.704010 2.460994 
1.990037 11.508473 -6.409049 0.633516 2.803144 -5.580508 
2.289073 13.223181 -5.490950 0.453162 3.407709 -5.202875 
15.658348 -3.662962 -2.210735 0.770147 -5.103863 -3.575006 
14.600789 -3.505975 -2.789695 1.381904 -4.847378 -3.727553 
-0.340857 21.525993 -0.009775 -3.906385 4.761173 0.050148 
-0.200294 21.385422 -0.859070 -3.027629 4.160529 -3.118822 
33.975677 -6.973344 -0.365627 -1.612739 -5.350939 -1.433969 
35.442047 -6.906510 -0.925472 -1.412784 -5.607323 -2.241264 
6.559881 15.031926 -2.427484 2.157598 4.930859 -2.930531 
37.318211 -1.229375 2.728611 1.705205 2.123996 5.654517 
38.357430 -2.165112 2.842776 1.467465 3.413476 5.024332 
37.367577 -2.241631 3.082418 0.476243 1.943921 5.915088 
-38.476803 4.229849 -4.490469 -3.041610 3.121425 -4.377216 
-37.881233 4.378115 -4.736797 -2.515817 3.100640 -4.737813 
-4.136274 17.402544 -1.825473 -1.719887 3.778531 -4.671329 
-37.907902 4.576327 4.718990 -2.762659 3.266687 4.517779 
3.251960 -1.099627 -6.610446 0.994815 -2.874563 -5.490026 
-38.447838 5.097581 3.916892 -2.878562 4.176011 3.206609 
23.561205 -4.478904 1.991996 -1.557577 -4.917132 3.538379 
22.671946 -3.792989 2.616479 -1.645814 -4.659772 3.786354 
24.358862 -4.045556 2.813768 -0.569703 -4.582592 4.160491 
-38.325726 5.306058 -3.529600 -2.894446 4.471581 -3.115346 
-38.036617 5.750902 -2.870728 -2.739242 5.001762 -2.595889 
39.545261 -6.967591 -4.865330 -4.396402 -4.293331 -1.190376 
-1.741696 2.275563 -8.542521 1.676002 -1.216001 -5.639979 
-3.216695 1.635140 -8.495919 1.010985 -1.637988 -5.954527 
-2.690579 1.106624 -8.159076 1.105977 -1.923137 -5.815925 
-1.016121 -6.550742 1.894048 1.407920 -5.669668 2.285489 
0.240627 -6.258728 2.007160 0.851087 -5.921574 1.866814 
-4.138848 16.732216 2.239269 -1.176300 3.985599 4.676568 
-3.181991 16.710281 2.409414 -0.581263 3.632678 5.054682 
-4.263040 16.062733 2.931279 -0.507201 4.598058 4.234141 
-37.518394 6.147242 2.868518 -3.012602 4.795099 2.710028 
-38.408962 6.128944 1.887608 -3.188856 4.981274 1.962478 
-37.810032 5.287806 4.050201 -2.527426 4.610031 3.395833 
12.917241 -3.901095 2.695606 0.835191 -5.391409 2.785506 
10.845188 -4.008411 2.730293 0.752452 -5.395629 3.077720 
10.953063 -3.625974 3.242160 0.600601 -4.903506 3.871403 
5.015185 17.261389 1.386807 4.347056 1.263850 4.341647 
4.421066 17.771860 1.746726 2.852183 0.688254 5.489956 
-38.148922 6.368814 -1.517650 -3.167502 5.074922 -1.851172 
-37.606857 6.859377 -1.025530 -3.381530 5.057242 -1.513465 
-0.463222 13.100533 5.896741 0.467014 4.215935 4.624808 
0.742748 12.413968 6.242341 1.085284 3.446595 5.122412 
0.146819 12.270716 6.557143 0.980527 3.237821 5.059376 
-37.542587 7.109721 0.071813 -3.381834 5.221740 0.048970 
-37.396023 7.095240 0.970031 -3.331539 5.142266 1.155815 
5.381010 18.692101 -0.540381 5.680333 -0.029442 -2.414073 
37.138218 -7.576551 0.016243 -2.474894 -5.720053 -0.000858 
37.427650 -7.501230 1.073806 -2.549036 -5.393313 1.913021 
-37.810032 6.340815 2.133650 -3.028823 4.964372 2.362438 
38.393070 -4.348244 4.399622 -3.889952 2.523897 4.016756 
38.684258 -5.386853 5.589340 -5.340828 0.036966 2.901948 
38.170048 -5.247028 4.331419 -5.191626 -0.442215 3.330137 
-1.906774 8.139080 -7.866149 0.252120 0.698830 -6.233791 
45.215183 -6.026546 3.053518 3.273768 5.214118 1.175893 
45.473537 -6.042484 2.063662 4.127839 4.703112 0.449222 
46.026215 -6.524003 2.935816 4.088834 4.669655 0.335201 
23.441830 9.466380 0.016249 2.504117 5.712568 -0.246938 
-34.112305 -6.516621 -3.128546 -0.284800 -5.110854 -3.622207 
-36.620388 -7.280946 -0.882236 0.497981 -6.221653 -0.533784 
31.765167 -4.176019 2.972456 0.060336 -1.457357 6.094498 
30.965857 -3.267020 3.171356 0.262701 -1.296290 6.137424 
-36.778664 -7.362558 0.952990 0.910002 -6.188151 0.395452 
-36.734787 -7.193044 1.956445 0.488726 -6.060620 1.513028 
-37.035240 -6.954490 2.700025 0.201835 -5.458463 2.999667 
43.711292 -5.262928 -6.572018 4.045486 4.759887 -0.560266 
43.147358 -5.083107 -7.834898 3.094213 5.113474 -1.759453 
44.505608 -5.896276 -6.584933 3.240643 5.347389 -0.145752 
-35.073006 -6.049367 -3.650852 -0.363176 -4.643885 -4.203094 
40.243107 -8.303410 -0.905906 -1.797341 -5.985804 -0.568485 
40.955643 -8.571249 -0.805493 -2.362601 -5.805331 -0.372090 
44.201084 -5.736319 -7.838254 2.949306 5.528697 -0.343976 
14.647607 1.635140 -5.955750 1.065264 -0.731185 -6.143748 
16.120914 0.257969 -5.555619 1.245994 -2.038005 -5.591934 
20.546074 6.724924 4.727549 1.487371 2.052632 5.732642 
47.169163 -10.155532 13.571915 -2.013204 -1.725481 5.497453 
48.144173 -10.131474 13.776522 -0.341682 -0.728280 5.930211 
47.896717 -10.790418 13.463528 -1.168408 -3.607605 4.693411 
-36.517166 -4.981291 -4.663073 -0.629777 -4.372267 -4.450241 
-37.345642 -4.058998 -5.360672 -1.390101 -3.341587 -4.896158 
-37.340305 -5.076542 4.708357 -0.426538 -4.014871 4.797920 
29.554560 5.611086 -1.889791 2.819659 4.145528 -3.757864 
30.685820 5.245731 -1.546927 2.392550 4.597283 -3.487224 
-36.468227 -4.027682 5.672681 -1.049740 -3.391083 5.143717 
46.400047 -11.520726 -7.834900 -2.162567 -5.744395 1.099153 
47.336781 -11.727564 -7.334599 -0.904809 -5.148585 2.399850 
47.162231 -11.813236 -7.906558 -1.006746 -6.007288 1.053127 
3.712330 13.622984 4.813987 1.306286 3.862426 4.764381 
3.046930 14.319700 4.507385 1.294455 3.946026 4.622728 
-3.646888 18.892874 -0.447690 -3.096741 4.909457 -1.591736 
-3.714478 18.961075 0.019149 -2.928835 4.518028 0.493169 
-4.063221 18.565929 0.103956 -3.629489 4.901815 0.913564 
47.041153 -7.507680 -7.648886 4.232907 4.608814 0.408260 
48.021179 -8.606941 -6.933458 4.926728 3.662073 1.063171 
47.921883 -8.558117 -6.037040 5.389214 3.024097 0.239792 
-36.200535 -3.229162 -5.950982 -1.535673 -2.743641 -5.423530 
-0.888708 5.247426 -8.144881 2.287390 0.460840 -5.813227 
24.240267 4.996298 -4.409881 2.156101 1.813302 -5.451645 
35.387856 -6.261534 -1.873586 -1.765746 -4.425817 -4.037159 
36.007282 -5.987753 -2.459738 -1.994897 -3.307974 -4.762524 
35.387856 -5.345521 -2.567378 -1.281547 -2.614886 -5.498238 
10.068251 -3.261808 3.926852 1.405743 -4.371886 4.245688 
9.206344 -3.858859 3.598235 1.574975 -4.896852 3.455350 
-36.947754 -3.220400 5.965172 -1.374696 -2.389779 5.640407 
-36.923710 -2.213116 -6.180948 -1.994730 -2.184546 -5.535144 
0.357663 16.769844 -2.732223 0.378544 2.915094 -5.541976 
-36.755730 -2.228015 6.420285 -1.902511 -2.039473 5.621907 
-37.459774 -1.125574 -6.382989 -2.431696 -1.120831 -5.483706 
-36.988457 -1.266779 6.663906 -1.942731 -1.387584 5.755336 
1.702153 15.239995 3.821999 0.327383 4.413705 4.440256 
1.507203 14.044849 4.950923 0.476626 4.172499 4.658158 
22.050844 10.228221 0.201613 2.352664 5.608465 0.157580 
19.963106 10.755081 0.175063 2.162740 5.867095 0.151806 
-3.366735 5.520026 -8.818468 0.507041 0.691571 -6.156456 
-3.195391 3.754902 -8.831591 0.289369 -0.259962 -6.242857 
-36.784340 -1.467664 -6.510861 -1.824196 -1.445915 -5.794321 
-36.465946 -0.477916 -6.727923 -1.611966 -0.246167 -6.032244 
10.303592 14.127868 -0.905197 2.150538 5.759845 -0.802089 
-37.570507 -0.495452 6.613704 -2.643983 -0.440140 5.467498 
31.386543 4.561550 1.999622 2.810788 4.088519 3.814714 
30.713026 5.282162 1.698104 2.597226 4.484597 3.387510 
10.981421 13.767912 -0.881807 2.391934 5.700028 -0.956475 
-37.313187 -0.014807 6.732198 -2.097994 0.590336 5.585356 
42.285374 -4.800832 -8.325884 1.156474 4.719950 -2.700262 
42.322811 -5.163180 -8.681419 0.544364 4.887236 -3.684337 
13.306349 2.929570 6.708357 1.785104 -1.095960 5.836089 
12.041897 2.739904 6.908598 0.730288 -0.878665 6.148932 
-0.570565 12.183878 -6.511811 0.496661 3.281658 -5.240594 
-6.416993 12.191645 -6.517301 -0.270439 3.261971 -5.303273 
-36.317314 0.587261 -6.718581 -1.861836 0.449692 -5.977016 
42.194038 -9.002927 8.018051 -3.776680 -4.856082 1.143549 
2.444701 -6.066110 1.901140 0.763064 -5.999017 1.601017 
1.395800 -5.916646 2.729077 0.494550 -5.445109 2.868987 
2.268732 -5.866210 2.621527 0.873318 -5.542646 2.599228 
33.845634 3.477771 1.203896 3.484405 4.604712 1.854509 
34.611404 2.818512 1.006102 3.730197 4.821681 1.403375 
34.314152 2.594205 1.957646 3.240526 4.186586 3.261948 
-36.438606 2.193932 -6.421948 -2.368461 1.663866 -5.532277 
41.883312 -5.902113 9.706238 -2.569141 3.214811 4.052944 
42.384182 -5.725336 9.692278 -0.986159 4.586659 3.905905 
42.316872 -5.329687 9.010565 -0.651813 5.374072 3.070343 
14.530507 -3.243861 2.983238 1.380235 -4.847022 3.725424 
17.462605 9.076088 -4.348724 1.448068 3.618752 -4.862863 
-36.820171 2.573224 6.243824 -2.569572 1.849756 5.418724 
-3.310376 6.830714 -8.495323 1.053728 2.237552 -5.693079 
-37.226498 3.302399 -5.614704 -2.667802 2.323257 -5.164412 
-37.025444 4.585862 -4.993612 -2.491664 3.123950 -4.838987 
26.526072 6.747814 -2.693274 2.171983 4.024320 -4.298543 
26.389954 6.106709 -3.355117 2.024250 3.117941 -4.890215 
27.335840 5.620852 -3.179644 2.255928 3.150441 -4.920980 
5.693509 7.512990 7.339376 1.884557 1.810505 5.688677 
6.681904 6.447418 7.286933 2.114458 1.196800 5.758421 
-36.799137 3.565744 5.881870 -2.516571 2.459692 5.170506 
41.819382 -8.040020 -9.224066 -4.437528 -3.242303 -2.564974 
41.355721 -8.201149 -7.834899 -4.206720 -4.088678 -2.129868 
17.207407 6.072239 -5.769754 0.954962 1.194505 -6.019671 
17.507641 4.858976 -5.858863 0.464571 0.319652 -6.225604 
18.741573 4.148894 -5.748219 1.273033 0.426640 -6.060709 
40.222336 -3.376901 3.993578 0.574836 5.680084 2.466659 
45.057789 -7.026881 -11.015300 0.202016 5.102242 -3.601017 
45.516098 -6.690434 -10.408817 1.244632 5.470838 -2.556507 
44.606419 -6.575900 -10.476425 0.477495 5.157700 -3.316918 
38.052849 -3.009553 -3.190194 -0.830101 2.842370 -5.467925 
-37.393208 5.125970 -4.396723 -2.620996 3.981205 -4.024068 
7.781700 3.100561 7.109435 0.953617 -0.244607 6.198906 
-36.965675 5.688306 -3.969205 -2.759423 4.449091 -3.446471 
-35.939121 5.630780 -4.860205 -2.949481 3.597033 -4.168766 
-37.246803 5.969421 -3.260473 -3.097017 4.526889 -2.958761 
-36.724133 6.022817 3.852758 -3.013767 4.402563 3.295254 
24.566635 -2.061884 3.995811 0.205469 -1.501106 6.085599 
23.096443 -0.921845 4.381173 0.968202 -2.016729 5.850694 
-37.152740 5.116660 4.747817 -2.541852 3.836335 4.143080 
40.452564 -7.950130 -4.049021 -4.215392 -4.622548 -0.449333 
24.886272 8.788212 0.168897 2.196669 5.849795 0.123274 
27.005316 8.253333 0.216804 2.531624 5.398680 0.256449 
26.395264 8.215389 1.039025 1.880251 5.525161 2.138211 
18.549557 0.299459 -5.170797 0.389566 -2.615245 -5.695587 
-37.557220 6.279840 -2.581027 -3.092189 4.730489 -2.612817 
20.992062 -3.976731 1.740005 -0.462063 -5.547658 2.771453 
21.214407 -4.215123 0.990376 -0.728725 -6.064024 1.356043 
-36.888741 6.555348 -2.825458 -3.322989 4.609428 -2.657508 
7.926213 7.654363 7.011805 0.233802 0.367691 6.265332 
15.612673 6.487432 6.004676 0.554252 0.836839 6.172249 
15.589498 4.911766 6.047525 0.718593 0.241531 6.223050 
-36.577198 7.211824 2.176886 -3.388644 4.881230 2.000887 
27.359394 7.721865 -0.870063 3.245281 4.837773 -2.206833 
27.766735 7.643439 0.223625 3.849939 4.917599 0.023074 
14.560424 -1.412575 -4.609125 1.210569 -3.283444 -5.201919 
13.647846 -1.939300 -4.583808 1.084460 -3.315118 -5.125314 
14.962771 -2.770252 -3.596139 1.477093 -4.084250 -4.390025 
-36.830063 6.542550 3.032534 -3.611520 4.237125 2.878654 
31.946085 3.614677 2.511757 2.718744 3.278564 4.495346 
-0.247113 18.444771 2.045760 -0.281059 1.392596 6.103406 
-1.204069 19.410975 1.662226 -2.133636 2.327526 5.281258 
-37.440121 7.152588 -0.484225 -3.685282 4.763904 -0.790999 
-36.825119 7.491618 0.148691 -3.114980 5.447717 0.024618 
-36.501785 7.585425 -0.887182 -3.208637 5.305356 -0.963779 
1.515033 8.467657 7.894784 0.449278 1.351274 6.073883 
3.543048 8.321487 7.686011 1.117141 2.104609 5.755043 
2.654789 7.459647 7.991436 0.343274 0.739042 6.184038 
43.318718 -6.101822 10.190348 -0.258959 4.646608 4.100471 
29.806955 -1.957879 3.732903 0.709348 -1.944596 5.896314 
30.274525 -1.170415 3.879351 1.034188 -1.045589 6.039669 
46.556801 -7.087817 2.101543 4.674669 4.191024 -0.090533 
44.335205 -9.211405 11.902424 -3.933404 -2.383066 4.172266 
43.551228 -8.764482 11.473423 -4.131498 -1.878633 3.957115 
-1.228765 18.426563 -1.874271 -0.800173 2.464030 -5.703254 
22.749014 9.803232 0.151663 2.982091 5.475118 0.158942 
22.459581 9.781651 -0.905900 2.776042 5.328510 -1.763758 
-35.882080 -7.273557 1.073806 0.182289 -6.264886 0.334535 
5.063795 -3.760108 -4.586068 1.462091 -4.083395 -4.393738 
26.497028 7.567443 -1.866751 2.350696 4.339555 -3.859561 
28.208124 7.030908 -1.375251 3.200891 4.459135 -2.623039 
32.418274 2.712501 2.771111 1.972083 2.570785 5.336707 
39.306183 -1.808946 -2.360430 2.337632 3.535115 -4.025464 
-34.880241 -6.551758 3.273883 -0.275332 -4.989155 3.799664 
24.860785 -2.975209 -3.554398 0.095447 -2.951949 -5.458193 
47.180763 -8.360271 -1.705763 6.116118 1.151741 0.420485 
6.183346 -5.378384 1.501288 1.314543 -5.946931 1.441133 
5.031583 -5.536640 1.880368 1.418675 -5.662060 2.299778 
-35.265804 -5.882085 4.009750 -0.551161 -4.730240 4.070843 
10.641346 12.501376 4.021205 1.986986 4.459183 3.912247 
11.816968 11.380867 4.570690 1.939509 3.754703 4.596890 
10.641346 11.593771 4.805563 1.675628 3.608073 4.853458 
40.635628 -2.149281 0.116469 4.345146 4.519638 -0.005642 
40.710678 -2.332179 -0.795870 4.186960 4.558387 -0.980815 
30.344809 1.746790 3.913803 1.490468 0.577682 6.007072 
47.024498 -7.523147 3.146254 4.773139 3.978365 -0.298981 
-35.880749 -4.045714 -5.586977 -0.958046 -3.428987 -5.134079 
8.816254 14.227227 -1.904161 1.850746 5.569753 -2.199561 
-36.087379 -5.070539 4.845751 -0.721467 -4.437451 4.371837 
-35.066147 -5.016638 5.146684 -1.255048 -4.530502 4.143648 
4.557866 13.771088 4.393777 1.074717 4.301365 4.397475 
49.537544 -8.978457 10.004325 4.670479 3.895655 -1.506896 
49.928612 -9.710760 9.607614 5.113754 1.966688 -2.455403 
10.984383 1.166969 -6.551100 0.878513 -2.120523 -5.661319 
10.146371 0.914933 -6.485643 0.368774 -2.309626 -5.809585 
29.448690 -5.271677 -1.873586 -1.666456 -4.566561 -3.946030 
30.053213 -5.046848 -2.413387 -1.210805 -3.746554 -4.625443 
-35.794582 -3.278306 6.233821 -1.632002 -3.089265 5.207656 
-1.288742 -3.226534 -6.081165 1.482107 -3.205249 -5.190960 
-2.678834 -3.106402 -6.445377 0.463820 -3.509350 -5.136083 
-36.249840 -2.191345 -6.466311 -1.749747 -2.089571 -5.593586 
-35.733536 -2.827703 6.565563 -1.581743 -2.540676 5.336523 
19.929428 9.242043 3.503352 1.749823 4.216359 4.165720 
17.678524 9.505078 4.022284 1.884284 4.025241 4.430125 
18.306080 9.897587 3.353296 1.720064 4.432206 4.102132 
41.761360 -3.994193 3.875480 2.632505 5.544623 1.155858 
42.245598 -4.046834 3.053519 3.147337 5.279474 1.224626 
42.154663 -4.206251 4.338863 2.379421 5.777109 0.604484 
41.187447 -7.186048 -8.753087 -4.761887 -1.814643 -3.512128 
