-11.528105 10.906498 -5.256139 4.855239 -1.840391 3.290433 
-8.758610 22.230000 -4.188133 6.142242 -0.189257 -0.045557 
-33.457611 32.692497 -5.768125 -5.444046 -1.032026 -1.602551 
30.991390 -2.692502 -5.368152 4.826039 -3.292450 -2.222275 
-16.998611 1.216503 -4.911645 3.387630 -3.220799 -4.167258 
-31.404110 7.568503 -6.111142 -4.270454 3.449625 -2.875463 
-12.825604 6.995998 -6.676142 0.560077 -2.712674 -5.172392 
-8.961610 7.619003 -6.238141 -3.092073 1.570527 -0.854405 
44.215393 12.448997 -5.726139 3.094861 -2.027982 -5.028552 
16.618389 25.909006 -6.275632 -0.248941 4.800204 3.662140 
11.291389 25.517496 -6.426633 -0.672423 4.589272 3.756757 
-34.232105 34.476997 -7.071622 -2.305778 1.049234 -1.262064 
-14.258610 39.955494 -6.527119 2.518717 4.476185 2.683027 
-15.340110 -26.226498 -6.533162 -0.050209 -5.986938 1.325325 
9.815390 -20.841505 -5.450160 -5.460897 -2.421886 -0.366893 
8.846390 -14.905002 -5.877657 -6.124943 0.125575 -0.488735 
3.661390 -10.947497 -6.190656 5.664907 -2.552649 -0.771817 
26.902895 -7.656502 -5.384153 4.921383 -2.855959 -1.801799 
36.660896 9.642503 -6.926142 0.692235 -0.264269 -5.979417 
-4.751110 14.699998 -6.142137 -3.006760 3.254705 2.427485 
44.259392 15.289997 -6.431639 2.110066 0.753725 -5.438239 
41.444893 18.286995 -5.710636 0.355266 3.195077 -5.160081 
-33.779106 16.580494 -5.349636 0.498489 -4.236428 0.429480 
-2.395110 19.068001 -6.887136 -0.912701 2.365087 1.333411 
-14.651110 35.307995 -5.317122 3.916802 2.136909 2.888787 
-16.341110 42.487495 -6.146619 1.231709 2.271592 5.323823 
-12.391109 -26.067499 -5.991663 -1.107523 -6.052812 0.925220 
13.717890 -26.267004 -3.447162 -2.626920 -4.825820 -0.226661 
-24.154110 -26.263498 -5.898164 -0.585021 -5.818785 -1.492023 
25.704889 -12.194497 -4.008156 5.546252 0.169058 -1.132000 
-7.330110 9.868498 -6.262640 -3.931390 2.001331 -0.082405 
36.490395 5.136503 -5.774142 0.435649 -2.398260 -5.576480 
-6.460610 12.950997 -6.387139 -3.049896 1.803327 0.657201 
37.015896 16.419001 -6.002636 -2.547403 3.199945 -2.075511 
-3.210110 13.840998 -4.793138 -4.107066 3.025272 3.472351 
-1.580110 17.106007 -5.919636 -2.575525 3.149851 4.258323 
6.253390 23.497000 -5.981133 -2.547413 4.470092 3.486151 
-38.870110 28.441006 -6.137125 -1.259140 1.506346 -4.936472 
-34.459106 30.282000 -5.850625 -2.553367 3.655880 -3.979822 
25.482891 -26.465504 -4.794662 1.388770 -5.122303 -2.210931 
-13.791610 -5.249502 -5.525653 -3.642953 3.357801 -3.252660 
-28.310608 11.946504 -4.680139 -4.484684 4.078600 -1.299113 
-35.404610 21.127998 -3.508636 -1.891054 5.613728 -0.751162 
-34.784611 25.260496 -5.251132 -0.210355 -4.988459 1.600569 
20.079391 25.629007 -6.018133 0.381184 4.598542 3.940786 
24.274891 -26.556005 -4.274662 -0.349664 -5.981031 0.647325 
38.468895 -24.438004 -4.281662 4.382709 -0.112550 -3.156046 
7.559390 -1.816997 -5.049150 5.823928 -2.014633 0.774025 
39.715393 4.544998 -5.746642 2.173026 -1.998750 -5.199580 
38.057396 2.105998 -4.841643 -0.828633 -2.846694 -5.244776 
41.232391 8.492002 -5.574642 4.980193 -2.530524 -2.395255 
35.943398 15.294497 -6.011138 1.243011 3.201546 0.808341 
-36.311604 25.742495 -5.648633 -2.249079 -5.042891 -1.998496 
15.409389 24.302494 -1.866133 -0.251209 4.923434 3.366827 
-31.063110 36.309494 -3.707122 -1.642764 5.823729 -1.546247 
-10.372109 3.952498 -5.550145 -4.212101 1.591543 -1.993028 
11.532394 8.987500 -2.262141 3.573355 -3.626091 3.491153 
-5.496610 10.869002 -5.438139 -3.839255 2.285641 3.939932 
-24.917109 27.852495 -2.429132 -2.962193 -3.403594 1.378373 
-9.691111 27.397995 -4.726633 5.164168 1.191526 -2.434156 
-28.723110 27.191994 -5.684633 0.938447 -0.579104 -0.541493 
-26.286110 27.220995 -5.503132 -2.077438 -4.666062 2.536104 
-28.720110 27.117994 -5.765133 -0.089780 0.604086 -2.346922 
-37.747105 29.425995 -4.855130 -0.383197 4.691374 -3.886192 
-10.315109 -26.463005 -3.218662 -0.216262 -6.030354 0.112570 
-37.150604 -19.676500 -4.726160 -4.768659 -2.520006 -2.828347 
-20.463108 -3.606502 -4.495152 3.157083 -0.792145 -4.695590 
16.651390 0.924995 -2.805645 -4.858807 2.510574 2.878392 
-15.614110 1.722003 -4.367145 3.895101 -2.359464 -0.359848 
-14.132105 4.483498 -4.874142 4.005859 -2.970939 0.871586 
-9.211605 17.119499 -4.723136 5.662460 -1.548882 1.829568 
-37.101604 18.517496 -4.401636 -2.924921 -0.137142 -4.847300 
28.665390 21.660999 -5.227636 2.588814 3.984665 3.770087 
25.642391 23.756006 -5.908633 1.909956 3.671796 4.065596 
-29.672611 26.435499 -5.902633 1.577297 -4.459597 4.062145 
-33.914604 27.972500 -2.794631 0.454580 -5.184205 3.308193 
-28.607111 26.873507 -5.916133 2.257977 -2.941741 4.775329 
-28.292110 26.982000 -5.947133 -2.293841 -3.756078 0.414929 
9.001390 -17.370501 -3.967159 -5.778540 -0.743391 1.193884 
-39.947609 -12.370502 -3.860656 -5.363947 -0.437827 -2.710631 
-12.068610 0.316503 -4.316650 -3.484933 1.879782 0.838348 
18.308390 8.165998 -5.165141 -4.900710 -2.607300 1.840713 
43.531395 9.726998 -4.743639 3.030977 -3.617249 -1.005480 
44.449890 19.671495 -4.217135 1.440331 3.891833 -4.315135 
-24.942610 19.257996 -5.365136 -1.517746 -5.829621 -1.555173 
31.780392 18.621500 -4.795136 3.544549 2.806950 4.282645 
24.211390 23.407995 -3.658133 2.281952 5.299226 2.461574 
-28.793610 26.981495 -5.680133 -1.466616 1.095458 -4.817171 
-28.372610 27.145000 -5.633133 -0.612181 5.266041 -3.153072 
-27.977108 27.184496 -5.754132 0.825566 -4.848494 2.767898 
-12.700605 33.480995 -4.186625 4.178306 4.437353 -1.224561 
-19.884109 37.615997 -4.571622 -0.945487 5.103882 2.419250 
-38.885105 -15.961502 -4.517157 -4.938334 -1.617079 -3.080430 
-40.653107 -10.344505 -2.697156 -5.598782 -0.160707 -1.640385 
-39.410103 -7.745502 -4.936656 -4.924050 0.285784 -3.251816 
41.361389 4.776003 -4.422642 4.874442 -0.436051 -3.530208 
-25.376610 15.137498 -3.487639 -4.894938 3.723184 0.784547 
-26.013105 25.137999 -4.684632 -4.744078 3.734796 -0.671011 
-28.661110 27.041996 -5.445132 2.143181 -4.688916 2.149843 
38.098396 -26.047504 -3.186662 2.586584 -4.415407 -1.165594 
31.768396 -25.847504 -1.068662 0.300350 -6.111934 -0.916730 
-30.275108 -25.875006 -2.673662 -1.702186 -5.735702 -1.162117 
0.137890 -18.215006 -2.551659 5.186977 -3.383733 -0.032213 
-34.851109 5.036497 -3.973142 -4.647597 3.238004 -2.029389 
-7.351610 7.134503 -4.447142 -4.264515 2.754447 3.592426 
-36.595108 16.950495 -3.504636 -0.264506 -4.948923 -1.598162 
-27.068110 23.351500 -5.342633 -2.482737 4.111096 -0.492012 
-28.882111 26.940496 -5.638133 2.618373 -4.852967 -1.656493 
-16.605610 36.405495 -4.193122 2.428557 3.361053 4.021931 
-17.481609 39.724499 -4.779620 0.074554 2.107888 5.405980 
-17.905605 -24.743004 -3.646162 0.494115 -5.633684 1.740508 
-29.498611 27.147495 -5.467133 -0.365856 0.870405 -2.382774 
-29.549610 27.135502 -5.463633 -0.077415 0.183066 -0.500705 
-28.275608 27.224495 -5.443633 1.419012 -5.643226 1.598136 
-28.295610 27.368496 -4.948633 -0.883968 -5.253302 2.770452 
-23.469610 -26.243505 -4.141662 0.689640 -6.043210 1.027131 
-38.378109 -1.770002 -3.999150 -5.291982 1.930476 -2.347410 
-36.530605 2.569496 -3.394644 -5.036839 2.894844 -1.964957 
34.363396 10.956498 -4.426139 1.222452 1.201378 4.649318 
37.493889 13.238499 -3.573139 -3.555670 1.040820 4.946694 
47.681892 12.564998 -4.084639 2.895463 -2.500779 -4.464824 
9.995390 24.366993 -3.671133 -1.672423 5.173124 2.608739 
-41.835106 29.468500 -4.985631 -2.292487 -0.408854 -4.045631 
31.107389 -18.608006 -2.300659 2.788115 4.821166 -0.737884 
2.512890 -14.141006 -2.598156 5.550116 -2.573423 0.547554 
-13.982610 -2.975502 -3.961653 -3.232272 3.433805 0.193879 
18.915390 6.901997 -3.564142 -5.726726 0.480555 2.072827 
33.534397 14.851498 -4.825138 3.723364 1.468455 4.566416 
-33.989609 18.280994 -3.522636 2.089366 -5.088213 1.325015 
-27.377609 19.554995 -1.894136 0.454313 -6.165669 0.265179 
-39.056602 26.576500 -3.660633 -1.311653 -4.930983 0.214462 
-28.316109 27.857494 -4.137130 0.084237 -5.714001 2.200906 
-11.715611 32.547997 -3.470625 3.109060 3.267906 -3.227220 
-32.513603 36.365997 -1.334622 -3.241423 4.254343 0.472907 
-35.503605 -23.466005 -2.129162 -3.731128 -4.474942 -1.332285 
9.208895 -12.495002 -4.218656 -5.705957 1.021762 1.811630 
27.153389 -13.497000 -0.059156 3.186814 4.582164 -0.082545 
-16.496609 -4.719502 -3.661653 -0.256664 4.305575 -3.045500 
30.375891 -5.961504 -2.439653 2.344721 -1.646037 1.626884 
-10.111605 3.697498 -4.322645 -3.387602 2.135940 3.906512 
-13.650105 7.782998 -3.945642 4.844600 -2.262409 3.155746 
-3.003610 11.341000 -1.050139 -4.232718 2.912321 3.379990 
47.224392 17.585995 -4.110636 4.101238 1.100081 -4.306105 
50.919395 15.483500 -2.856136 2.338891 -0.027750 -0.657696 
38.598389 16.895996 -2.697636 -4.976661 0.173736 2.994734 
47.052391 18.529499 -4.197636 2.627534 1.764185 -4.983707 
0.315890 17.496494 -3.272136 -4.053691 3.863099 2.716002 
-25.028111 19.048000 -4.769135 -1.528173 -0.042809 -0.054195 
-25.270109 19.081495 -4.337636 -2.263847 -5.555131 -0.818422 
-24.901112 18.910500 -4.898636 -0.117861 -0.552780 0.147039 
-24.777109 19.008995 -4.713636 -2.459579 -5.281968 1.226227 
22.870892 23.390495 -2.246633 1.581403 4.785801 3.272476 
31.751389 -26.485004 0.836838 1.061860 -5.912588 -0.944697 
11.069890 -22.947504 -2.279662 -5.107093 -2.723866 1.152912 
27.979391 -16.238005 -3.928659 3.718045 4.203487 0.214448 
4.340390 -9.677502 -3.071656 5.720018 -2.266420 0.750964 
13.455891 -4.322002 -2.791653 -4.436076 2.507285 3.269948 
45.755890 11.371497 -3.959639 1.825983 -4.852451 -1.289982 
36.313889 10.312003 -3.062639 -3.370841 1.863325 4.814356 
36.970390 15.826999 -3.864136 -4.108398 1.669373 2.693912 
-34.213104 30.826996 -3.324625 -2.274937 3.739061 -1.641868 
18.642891 -26.031506 -4.630662 0.327537 -6.094139 1.119126 
37.600395 -26.122505 0.897338 1.558704 -4.839293 1.812153 
-3.688610 -23.209505 -2.495162 4.463753 -4.222447 -0.448085 
35.974396 -20.222504 -3.509159 3.021960 3.732422 -3.603268 
-18.404610 -3.748497 -3.695153 2.764438 0.633594 -5.196761 
40.746391 -3.258505 -1.907151 0.625400 -2.575315 -5.116620 
9.748890 6.591496 -2.300142 4.653035 -2.957811 2.922835 
41.294395 8.741498 -3.284641 4.835660 -0.239205 2.701311 
-12.090611 12.641496 -1.771639 5.111039 -2.097500 2.796430 
-23.283611 18.868996 -2.566636 -3.397876 -2.110064 1.514895 
26.976391 21.117990 -1.500635 2.574861 3.680383 3.616805 
-27.823109 24.263990 -3.990133 -2.836234 4.565166 -2.586282 
-33.400105 34.544994 -2.043622 -5.821702 1.866320 -0.057507 
8.979390 -14.975002 -3.936656 -5.844769 0.326309 1.628731 
35.923897 1.645498 -3.585145 -0.480883 -3.848047 -4.705487 
-33.888603 7.171995 -1.109642 -4.625675 3.680215 -0.033670 
39.294392 21.524496 -3.121634 -0.135937 2.587573 -0.145571 
3.861390 20.234995 -2.551136 -3.204580 4.374077 2.966342 
-37.599609 31.368990 -2.061130 0.178693 4.330428 -3.993788 
16.040890 -26.236004 -1.512662 1.025558 -6.164024 -0.146848 
-6.120610 -25.535004 -0.917662 2.981889 -5.096301 0.228312 
-17.161610 -0.868497 -3.199150 4.994807 -1.403461 1.228461 
35.163391 7.395998 -3.910642 -0.823702 0.231503 2.783967 
35.249397 8.003497 -4.018142 -2.207909 1.015685 4.183891 
35.114891 7.575500 -3.926642 1.398576 2.849807 4.479718 
42.174889 9.790498 -3.323139 2.179076 -2.594499 4.976250 
-30.703106 18.589495 -0.673136 1.869359 -5.953501 -0.406789 
40.901890 20.036995 -3.227136 -0.351857 4.818986 -0.653792 
-33.888103 21.077999 -1.896136 -1.813388 4.481621 -1.717928 
-8.659610 24.681995 -3.572133 3.385904 -0.076710 -4.668334 
-8.773109 28.826996 -3.941630 1.467969 0.785185 -5.967903 
-14.600110 -25.111006 -2.937162 -1.753918 -5.680210 1.726929 
9.038890 -14.581502 -3.929656 0.019847 0.863633 -0.883155 
9.046890 -14.534997 -3.878156 5.164121 -0.072760 -2.126987 
9.629889 -12.975503 -3.288656 -5.408639 1.073844 2.997462 
-40.142609 -7.584002 -2.485653 -6.006399 1.137544 -1.316781 
-9.866110 -0.303002 -3.290650 -3.574270 2.261619 3.786059 
42.148891 -0.511005 -2.280650 3.660442 -1.591009 -4.724436 
35.182896 7.519997 -3.925142 1.878186 1.647901 0.375208 
35.152897 7.409496 -3.885142 4.021149 -3.764535 0.507711 
35.162891 7.168498 -3.750142 -2.671131 1.939325 3.705080 
33.982388 7.104998 -3.556142 2.740444 0.806935 4.797365 
35.624390 7.247498 -2.524642 -5.611010 1.266542 2.403017 
15.193390 11.208996 -2.234639 0.624540 -4.549309 4.049517 
48.744892 14.001494 -2.602639 4.647091 -2.566162 1.920167 
-31.128609 23.435995 -2.095633 -2.518636 4.718733 -2.366555 
-29.721611 37.145496 -0.513622 -0.859722 5.812707 1.100616 
9.993890 -14.854506 -2.057156 -5.327636 0.579052 3.193701 
-17.830610 -2.780504 -2.321151 5.121951 1.110270 2.036397 
-11.960110 -3.899503 -2.575653 -2.714155 3.580682 3.093875 
8.414391 3.707495 -2.376142 5.279449 -1.927001 2.682073 
5.399390 -5.279005 -1.047153 5.314202 -1.572389 2.599796 
-15.780110 5.092495 -3.018642 4.585536 -2.329929 3.316919 
-31.331606 9.543500 -2.333139 -4.401536 4.199232 -0.527568 
38.202396 20.232000 -3.289136 -4.220340 1.668513 -0.873042 
42.776394 23.091496 -1.800133 -0.209315 2.025127 0.037035 
-44.581608 29.384495 -2.233630 -3.069037 -2.810949 -0.750943 
-33.376610 32.380501 -2.402130 -3.832572 2.006554 -1.951860 
-22.640110 37.428001 -2.154622 0.419144 5.952755 1.286926 
-37.852604 -21.248505 -0.343659 -4.880142 -3.372370 -0.455379 
10.499889 -11.394506 -2.351656 -4.932444 1.622136 3.395261 
28.059891 -8.618002 -2.934654 5.109566 -2.907314 -1.235804 
32.604389 -2.733500 -2.789150 2.657688 -1.537170 1.564715 
35.297398 3.967500 -2.293642 -4.231524 1.273154 3.681087 
35.286888 6.776000 -3.357142 -5.652482 0.505731 2.330619 
35.190388 6.967998 -3.586142 -3.296435 0.330769 1.222474 
35.105396 6.823997 -3.599642 0.199090 2.517413 5.683924 
-24.010109 19.699499 0.379364 -0.749397 -5.983122 1.635735 
-7.370110 26.254995 -3.248633 2.072652 -1.040162 -5.364784 
-11.776110 34.330494 -1.654622 0.588558 5.601277 -2.441132 
27.671391 -26.494505 -1.608162 -0.816684 -6.023369 0.843180 
-20.980110 -24.905005 -2.251662 0.767571 -5.950321 0.791362 
32.688389 -18.747005 -0.782659 0.529100 4.728742 -2.489432 
42.665894 2.480495 -2.351645 5.343726 0.071295 -2.884227 
34.066395 3.146497 -2.737144 -1.519769 1.145028 5.524329 
42.808895 4.250495 -1.139142 5.508751 1.925978 -0.286883 
18.327391 10.352489 -2.486639 -2.790228 -3.318510 4.114925 
45.139893 11.852995 -2.922639 0.203441 -3.481338 4.889482 
48.200893 11.242495 -2.175139 0.527412 -2.110896 1.254559 
-39.719612 17.284000 -2.810136 -2.044167 -1.973661 -4.651260 
-8.401110 21.275499 -2.425134 3.232733 -3.546135 -3.659148 
-2.269610 27.401501 -3.340631 1.770524 -2.427947 -2.127940 
-6.512105 30.428501 -3.404125 2.099090 1.710241 -4.168894 
-1.627110 28.697500 -3.275630 2.363372 1.089687 -1.858693 
-17.458611 36.048496 -1.681122 0.203591 5.651242 -0.911324 
-6.661110 3.534495 0.041858 -4.600040 2.470396 3.340455 
-27.982609 12.241995 -0.554139 -3.199972 5.048295 1.563427 
47.739395 17.314495 -1.667636 3.609165 0.056965 3.189231 
50.507393 21.570494 -1.017636 1.033643 0.724829 0.012181 
-39.284607 20.471994 -2.203636 -1.158684 3.363523 -4.367955 
7.861390 21.584494 -1.100136 -1.821052 3.700791 4.247190 
-5.728110 31.401999 -3.276630 1.908382 -2.242389 -2.473307 
-7.395605 33.445999 -3.093622 -0.242723 3.195183 -4.580395 
-2.207110 33.607494 -2.233624 2.945295 -1.713299 0.692669 
-2.253110 34.645996 -3.242622 1.122575 0.937905 -1.148780 
-14.307106 34.698990 -1.323623 2.138802 3.747405 -2.653361 
-20.066111 -25.123005 -0.642162 -0.062994 -6.195302 -0.241446 
34.110397 0.588995 -2.672145 -0.615212 -2.751883 1.126440 
-38.404606 0.630995 0.310855 -5.372957 2.430164 0.307795 
-29.421110 11.563496 -0.515639 -3.498222 4.204091 1.333034 
39.042896 11.570500 -2.478639 -0.679115 0.921499 5.865787 
50.139393 12.051991 -2.437139 0.812108 -0.210329 0.157756 
31.067394 14.328495 -0.759139 3.811764 1.590948 4.273001 
-3.492110 21.594994 -2.703133 1.319165 -1.214418 -0.703145 
-16.275610 -5.580005 -1.420653 1.285224 4.937836 2.216948 
31.854391 2.025495 -2.191150 3.497494 -1.501738 4.796388 
21.169889 9.413995 0.068861 -3.884527 -0.707657 4.754874 
-35.487602 17.376995 1.249364 1.090890 -6.150503 0.223567 
-3.614610 23.270494 -2.423133 3.206875 1.811574 -1.177460 
-6.183610 26.054495 -1.560633 2.548416 -5.481081 -0.273555 
-1.396110 28.229494 -1.990630 2.417738 -0.228030 1.223096 
-2.973610 29.574001 -2.146630 2.278194 4.559089 1.248283 
30.262890 -15.300505 1.759843 2.858288 3.541084 -3.788655 
-39.852104 -3.759505 -1.701653 -5.607291 1.538927 -0.907424 
36.224396 -1.847505 -0.757650 -1.652485 -3.627505 -4.721074 
38.317894 8.893496 -1.115142 -0.362307 3.428871 4.979012 
-0.511110 14.410495 -0.741139 -3.630449 2.976480 3.831830 
-43.428108 17.663496 -1.326136 -1.702540 -0.371543 -5.555412 
-9.620105 20.157494 -2.252636 4.341689 -3.400309 0.907076 
-27.290112 -26.274004 -0.979662 0.232326 -6.182992 0.046972 
20.250389 -25.119003 -0.872662 0.897304 -5.548921 0.516998 
14.167891 -25.738007 1.006338 -3.701773 -4.026046 1.846427 
-14.840611 -24.380005 -1.830662 0.703300 -5.960759 1.228980 
32.325390 7.300495 -0.873142 4.511764 -0.153244 4.017534 
38.764397 20.058994 -1.265136 -1.358703 1.286519 2.592162 
-12.539110 14.442495 -0.134639 4.046390 -0.830631 4.277639 
-27.047110 24.856989 -1.017133 -1.434128 6.079059 0.158641 
-29.464109 28.454000 -1.585130 -0.487844 -6.130415 0.693568 
-45.964111 31.644489 -2.155625 -3.111518 -0.606139 -2.925591 
-2.356610 34.520500 -1.948122 1.845323 1.849830 1.874370 
-31.363110 -25.921003 0.246338 -1.802793 -5.783070 -0.001702 
40.250893 -23.787004 -1.011162 4.926966 -0.574832 -1.126006 
-40.590103 -14.717006 -1.030656 -5.791941 -0.798026 -0.955964 
2.640390 -11.374005 0.257344 5.326903 -1.782929 2.650529 
28.311390 -7.170000 -2.150653 1.601058 -0.099141 5.539433 
26.313889 -7.045999 -2.151153 2.078969 -0.437519 5.048562 
30.709888 -0.910505 -2.593145 2.154485 -1.194363 5.316603 
-9.086110 -1.447005 0.325350 -4.354743 3.172059 3.013583 
40.516392 7.903495 -1.318642 3.555660 3.380539 3.709389 
40.333397 13.702994 -2.068639 -0.918466 -1.076853 5.979064 
48.507889 14.321500 -1.836139 1.744370 -2.647116 4.852592 
50.761395 15.822495 -1.327136 1.465439 0.234679 1.112543 
28.296894 17.204994 0.023364 2.653152 1.873040 4.922409 
-28.886604 24.546995 -2.217633 0.090814 0.139743 -0.096635 
-28.873611 24.546494 -2.202133 1.702181 2.200399 -1.336611 
-28.854610 24.539995 -2.188633 -1.994536 -2.030895 1.597637 
-28.580610 24.410496 -2.120133 -2.788161 4.596464 -2.156064 
-38.156105 28.974995 -0.751630 0.879885 -4.341712 4.169965 
-42.183109 28.603495 -1.214630 -3.738984 -4.713836 1.318261 
-14.515110 -24.329506 -2.043662 -1.154069 -3.117292 1.541772 
-14.283110 -24.377005 -1.361162 0.200223 -1.167114 0.541342 
-14.529605 -24.330999 -2.010162 -0.687395 6.224959 0.064189 
-14.506605 -24.332504 -1.928662 0.007545 -0.008854 0.118515 
-1.547110 -20.851004 -0.751659 4.620617 -3.621469 0.825991 
38.494392 -20.105003 -1.055659 4.338624 2.145769 -3.992836 
36.128395 -17.471506 -2.430159 0.325863 2.581192 -3.534792 
28.392889 -7.698500 -2.237653 -2.273986 -0.045819 -1.851865 
28.395891 -7.847497 -2.237653 4.155558 -0.101757 0.469908 
-14.503611 -5.790000 -0.987653 -0.883254 5.165080 2.142897 
-18.831610 0.836995 -1.645645 4.632507 -1.058771 3.384907 
40.769890 18.531496 -1.169636 -1.119006 0.670869 5.737742 
-7.090611 22.102493 -0.520133 2.528842 -2.671915 4.254114 
-7.056110 25.320490 -0.456133 3.955795 -1.235789 3.850592 
18.854889 23.141001 -0.671133 0.554611 4.043631 4.300488 
-28.759109 24.529995 -2.068133 -2.368366 2.028560 2.136703 
-28.624607 24.426001 -1.955133 -4.429112 2.254992 1.761208 
-28.580610 24.517500 -1.900633 -1.884887 4.198405 0.353451 
-7.463610 31.218500 -0.700625 3.682526 -0.999725 4.442894 
-7.406110 34.140495 -1.476122 0.511728 5.366045 0.633770 
-19.813610 36.154995 -0.574622 1.240602 5.926419 1.608490 
-13.118105 -25.284504 -0.396162 -2.548780 -5.668652 -0.055142 
26.913891 -10.644505 -1.183156 2.952588 0.183066 2.834525 
19.510891 5.040495 -0.903142 -4.810044 1.515812 3.611541 
-15.704109 7.191495 -0.060642 4.741826 -2.574660 2.982337 
12.450390 13.867001 0.744361 1.191521 -2.070638 5.630137 
-8.006110 20.292000 -1.509136 2.213470 -2.878103 -0.414521 
44.878891 19.991995 -2.130136 1.265594 4.860851 1.282616 
-3.761610 22.625000 -1.276133 2.716125 -0.372111 2.720171 
11.965390 22.087496 -0.351633 -0.933033 3.305816 4.949019 
-14.614110 -24.304504 -0.798162 -0.393311 -5.897535 0.099601 
-14.348110 -24.340506 -1.571162 -1.325477 1.769825 -0.357712 
-39.736603 -4.574505 1.479847 -5.943831 1.656198 0.896024 
19.261391 0.084995 0.317850 -3.019142 0.941069 5.196781 
19.934389 13.482495 0.593361 -1.660697 -1.796186 5.657857 
-43.605110 16.632496 -0.566636 0.400601 -4.705873 -0.041783 
-32.104603 17.816500 0.949864 1.702258 -5.753329 0.047314 
-21.853609 18.922991 0.107864 -2.979932 -1.998839 3.873120 
2.953890 17.237499 0.031364 -2.327113 2.891231 4.537060 
-11.558610 18.773495 -0.926136 3.253559 -2.194341 4.124445 
-46.077606 34.398495 -1.028122 -1.413775 3.183185 -3.796661 
-25.278111 37.000488 0.139378 -0.221621 5.739488 1.949307 
11.174890 -18.516504 0.336341 -5.808551 -1.591916 1.053838 
-39.754105 -17.502504 0.088341 -5.536574 -2.455271 -0.315080 
-40.690609 -8.873505 1.018847 -6.188108 0.180012 0.284455 
-40.939606 -7.333505 1.461347 -5.424595 0.596951 0.516315 
-19.152109 -4.035005 -0.788653 3.832829 2.432519 2.710703 
26.658890 -3.046505 -0.266650 2.928202 -1.981573 5.056828 
30.946390 3.473995 -0.322142 3.878281 -1.525154 4.407481 
-36.258606 4.128492 1.873858 -4.371661 3.056625 1.525015 
44.793392 16.355490 -1.054636 -0.523987 -2.112895 5.763709 
-28.305609 24.491995 -1.286633 -1.885546 5.975629 0.406981 
-28.551104 24.455494 -1.754633 -0.226831 -5.489369 -0.456148 
-23.011110 27.163502 0.815367 -3.136575 -2.436181 2.023647 
-32.728104 28.985497 -0.233130 -0.781310 -5.982766 1.301687 
-7.729610 30.257996 0.076370 2.095091 1.736464 4.768568 
-36.257607 34.599998 0.642878 2.414795 4.688243 -2.628726 
18.712389 -25.316505 0.607838 2.689759 -5.520155 -0.053514 
23.615389 -24.850504 -1.151662 -3.119601 -3.972795 0.322904 
23.009392 -24.487505 -1.411162 -0.347655 -3.192255 4.972006 
24.790390 -10.049505 -1.559156 1.945664 0.905340 4.842421 
43.997894 -3.206505 0.143347 4.719196 -0.711836 -3.034087 
7.374890 7.207995 0.879358 3.552728 -1.330746 4.788666 
37.928394 5.672995 1.253858 -2.655416 3.315659 4.437675 
-39.408104 16.962000 -0.529636 0.092045 -6.211499 0.709965 
-42.359604 21.280994 -0.700636 -1.689998 2.897956 -4.733339 
-47.453609 34.232994 0.246378 -3.485521 0.776832 -0.155717 
-8.289110 35.102497 -0.491122 1.398698 1.691920 0.543439 
39.465393 -25.268505 0.110838 3.869235 -3.456169 1.209556 
-14.145105 -24.604006 -0.894162 -4.635972 -3.011466 1.369187 
36.469891 -16.286005 -0.908159 0.351549 4.046026 -1.682601 
38.840897 -17.746006 0.481341 4.569123 2.840509 -2.290250 
12.477389 -12.159005 0.303344 -4.117369 3.533829 1.707883 
15.801395 -7.571505 0.194347 -2.483834 2.007498 5.334075 
-11.676605 -4.999506 1.559847 -3.045255 4.899403 2.185665 
35.069393 -2.887005 0.361850 -3.919370 -0.910962 -1.533572 
36.226391 4.287495 0.500358 -5.088043 1.691569 2.801969 
-29.520103 10.318995 0.891361 -3.658689 4.286482 2.640326 
16.698891 14.319994 0.485361 -0.208827 -2.569350 5.577685 
43.728394 17.982494 -0.653136 -0.514358 -0.327180 5.943412 
-40.303608 22.511995 -1.364633 0.058074 2.773412 -2.156048 
-36.240604 22.501495 0.399867 -1.615370 4.888083 -2.792967 
-28.873110 28.140490 2.456367 -1.199656 -6.095794 -0.825980 
-43.882107 30.503996 -0.219630 -3.891222 -4.220568 2.273800 
-46.778107 32.888992 0.693875 -3.656193 -2.753058 2.373384 
-14.164110 -24.344006 -1.004162 -3.011565 -2.741215 0.472591 
-3.960610 -22.983006 1.964838 4.229474 -3.693644 1.926636 
22.539389 -21.928505 -0.295662 2.728150 -2.622545 4.649560 
10.694890 -15.641005 -0.775659 -5.851223 0.546392 1.816306 
11.173395 -14.282505 -0.600656 -5.264374 1.832026 1.208081 
23.561390 -8.361506 0.005847 3.318570 -0.692281 5.171285 
-2.809110 9.038000 0.610859 -3.451528 2.430554 4.551012 
-23.246611 15.003995 0.968861 -3.207397 3.231853 4.050032 
-9.251110 20.883495 0.276864 2.716056 -2.919696 3.923282 
47.779392 20.876995 0.312364 -0.839048 2.271509 2.775206 
43.290390 22.418995 -0.906633 0.792030 1.852210 2.195656 
-23.902111 25.302999 0.967867 -3.065233 4.720916 1.456754 
-6.036610 33.372501 -0.554125 1.235809 1.370404 4.719824 
-14.113111 37.952496 -0.861122 -0.044737 2.119385 -5.425034 
-39.192604 -2.176505 1.298350 -5.760735 1.949268 0.906150 
35.905396 -1.495005 1.053350 -5.455719 1.354611 1.986882 
-18.593109 4.648495 2.075358 4.581429 -1.908547 3.599474 
-46.058609 16.196495 -1.161636 -0.596924 -1.417890 -1.239649 
-40.507107 22.528500 -0.048633 -1.489418 4.485457 1.666029 
-30.429604 23.824995 1.503867 -1.064107 6.113669 0.509311 
-6.179105 26.668495 0.094867 2.334750 -0.500463 3.803881 
-40.952606 36.531494 -0.054622 -1.193583 3.328279 -3.336325 
-14.244110 -24.364506 -0.855662 -0.555119 -5.629206 -2.310035 
22.455389 -11.147505 0.714844 3.264631 2.585087 4.205637 
24.768391 -13.142505 0.029844 1.807336 3.735146 3.088562 
-34.359612 5.741495 2.206858 -4.019423 3.995792 2.099489 
8.158890 11.072495 1.324861 1.907196 -0.907546 5.653961 
49.175392 20.172998 0.299864 2.098350 -0.730245 3.401167 
-40.730606 26.711494 -0.216633 -0.415463 -2.042386 1.425429 
-41.928604 28.836496 0.078370 -1.798422 -3.375610 3.801144 
-7.542110 27.567501 -0.248133 1.615936 1.748962 5.287844 
-34.257103 33.791496 -0.838125 -4.157312 0.557209 -0.315941 
-11.057105 32.511993 0.835875 2.399100 -0.813558 5.679829 
-11.298610 39.021500 -0.168122 1.750678 1.081787 0.060442 
-11.459105 38.524990 -1.104122 1.234906 0.535242 -1.509631 
21.948891 -25.577505 -0.243162 0.494907 -3.275821 -2.589104 
22.838890 -22.876507 0.214338 -1.209904 2.224115 -5.627022 
-14.301610 -24.733006 1.336838 -2.173481 -5.116779 -1.577464 
-14.177111 -24.440506 -0.776162 -4.664249 -3.250390 0.264108 
-14.174610 -24.401005 -0.758662 4.793009 2.472074 -1.191511 
-2.038110 -20.145504 1.987341 4.728198 -2.940524 2.471891 
0.517390 -16.560005 1.177341 4.849037 -2.390318 2.471410 
10.785395 -16.943005 0.146841 -5.865091 -1.191796 -1.801960 
42.830391 2.314495 2.929857 3.983227 3.327214 2.649844 
-34.185604 33.820496 -0.130122 -1.087795 5.597499 -1.087719 
-34.257103 33.802494 -0.724124 1.442399 2.624016 -0.253141 
-27.108604 -26.403505 2.611338 0.341138 -6.009097 -0.042064 
25.335396 -25.006504 0.463838 -1.541254 -5.703772 0.942018 
-17.418610 -25.004005 3.178838 -0.371840 -5.482401 -2.284140 
-14.158610 -24.399004 -0.646162 -0.681688 -0.019288 0.413462 
11.998390 -20.296003 1.650841 -5.156911 -2.853149 0.473248 
-40.966606 -11.121506 2.762844 -5.237786 -0.638844 1.272849 
30.349892 6.273495 0.688358 2.929459 -0.347675 5.289063 
-47.696606 17.478495 1.641364 -1.751817 -3.900364 1.843790 
-46.942604 21.264990 1.474364 -3.308166 3.216256 -3.683510 
-48.286102 18.226000 0.304364 -3.014905 -0.310796 -2.199999 
-10.920610 20.334000 1.426364 2.317325 -1.630968 3.773587 
22.585390 19.797995 0.615364 1.015837 2.324821 5.529437 
-44.827606 32.131496 0.698875 -3.488864 -3.634629 3.083648 
-43.197609 34.550995 0.370378 -0.078686 4.090642 -4.107866 
-33.164604 33.983501 1.869875 -0.474596 5.046091 2.697642 
-38.135105 36.630493 0.795378 2.406673 3.921184 -3.139109 
-13.036610 35.185997 -0.170622 4.822808 1.158032 -1.636395 
-19.802610 35.753494 1.168378 -0.492108 5.682447 1.711897 
-13.186110 39.683002 0.363878 -0.097467 3.992486 -0.643142 
16.438889 -26.572504 1.663838 -0.368852 -5.604169 0.386133 
-24.538610 -25.349005 2.356338 1.195414 -5.860524 -0.861489 
-40.497608 -12.290005 2.219844 -5.981406 -1.153906 0.897856 
40.228390 -10.270005 1.668844 -1.755550 -0.948929 -5.836232 
17.945890 -6.179505 0.518847 -1.192262 0.694820 6.118092 
5.269390 2.798495 1.605855 3.786191 -0.926943 4.668787 
-16.454609 9.188994 1.775361 3.838767 -1.171001 4.656737 
28.826389 12.399494 1.048361 2.027905 1.081547 5.485448 
-38.475605 21.216496 0.482364 0.448897 4.248977 -2.702259 
-13.296109 34.540001 1.030378 2.089492 2.652566 4.709373 
34.886890 -25.823505 2.546838 1.695670 -5.900350 0.337390 
-34.786610 -24.351006 0.530838 -3.448548 -4.837523 0.177310 
20.213390 -25.855005 0.922338 -2.105209 -2.430498 0.101975 
21.423389 -22.865005 0.022838 3.011719 -0.654503 -0.816197 
25.984890 -18.070005 0.426841 -2.302423 0.790602 1.969463 
24.248390 -18.124004 0.760341 3.312635 -2.252282 4.252023 
3.350390 -2.640507 2.296350 4.055073 -0.746827 4.595953 
40.097393 2.070992 4.701355 0.648540 4.108748 4.426292 
-39.408104 22.050495 0.292867 -4.533029 -2.422029 -1.768039 
14.529395 19.941494 0.701864 -0.252803 1.747531 5.951444 
-39.547104 22.483002 -0.050133 1.895486 1.883842 0.649626 
-9.362610 -26.394005 2.086838 0.946895 -5.699600 0.762169 
10.705890 -15.243505 0.194844 -4.298060 -1.142988 -0.829192 
37.533897 -6.641006 1.755347 -2.560964 -2.533376 -4.704753 
27.004391 0.635995 0.975855 1.917319 -1.432882 5.613201 
21.749889 5.881995 0.989358 -2.971792 0.666703 5.352117 
-31.521605 8.336995 2.043358 -3.463885 4.504956 2.324319 
-37.379105 30.290501 0.962870 -1.727525 -5.265230 2.518283 
-12.503610 30.393496 1.178870 2.612714 -0.551371 5.273562 
-9.933105 34.263500 1.074878 1.902816 0.744665 3.282705 
24.798391 -24.504005 2.359838 0.978890 -5.416413 2.716359 
24.798889 -16.729506 0.592841 1.316807 -1.078297 2.446679 
24.789391 -16.737505 0.578341 -1.767700 0.784904 0.724957 
10.874890 -15.220505 0.397844 -1.100904 -0.214315 -0.015469 
10.769896 -15.041004 0.471344 2.991790 0.882996 2.863944 
10.777895 -15.573000 0.286841 -0.198761 -0.816152 -0.952635 
10.720890 -15.412504 0.362343 -4.845034 -0.812600 4.959829 
10.438390 -14.289505 1.068344 -5.146512 2.145719 -1.197603 
0.064390 11.431495 1.240861 -2.148622 2.103292 5.295058 
24.508892 14.587500 1.519861 0.413542 0.583498 6.042873 
9.426390 16.170494 1.318364 -0.124224 0.919522 6.030621 
19.056890 20.492990 0.768364 0.152660 1.997879 5.764517 
-39.261604 21.854500 0.391867 0.489287 -0.768459 -0.946895 
-23.125610 27.120995 3.265368 -0.016658 -6.161005 0.294099 
-31.100103 28.688000 0.356870 -3.006820 -2.087235 -1.222224 
-30.585611 36.133995 1.627878 -2.043383 4.802189 2.695865 
25.741390 -25.178005 0.432338 -2.032896 -5.815324 1.099233 
21.886389 -21.855003 0.563338 -2.115017 -1.535310 -5.469333 
27.448891 -15.246005 1.203843 -0.971234 -0.549726 0.199787 
26.573391 -15.982505 2.033341 -2.527751 0.638472 -3.935067 
25.668390 -15.214505 1.171842 1.152575 -3.200406 2.010696 
10.708890 -14.857005 0.539844 -2.896726 1.644624 -3.897499 
16.383890 -11.113505 2.401344 -0.273259 4.796961 1.293131 
35.135395 -7.221005 2.450347 -3.640631 -1.256870 -3.727869 
-3.159110 5.153492 2.268358 -2.454720 1.849266 5.229891 
15.634390 17.252001 1.037864 -0.001738 -0.089518 6.233119 
-45.005108 22.386501 0.892367 -1.336514 3.793911 -3.035714 
-43.208611 22.568495 -0.073133 -0.347186 2.955845 -2.018404 
-10.740105 24.730995 1.638367 1.736586 -0.734119 5.835245 
-31.269606 28.514996 0.459370 -1.388560 -5.169714 -0.411686 
-31.302608 28.522501 0.474370 -0.233743 -0.131708 0.302873 
-31.341610 28.527000 0.499870 0.492199 -0.977349 0.811272 
-30.589111 28.558495 1.575870 -1.336372 -6.121210 -0.189915 
-13.263110 38.716496 2.294378 1.241163 0.496123 2.035311 
25.497890 -25.111006 0.658838 1.689338 -0.990622 1.168254 
25.456890 -25.108006 0.639838 -2.981170 -4.612405 0.536605 
26.856890 -25.244505 1.770338 -1.753477 -5.876401 1.193049 
-36.171612 -22.605505 2.174838 -4.243246 -4.529534 0.830812 
21.231890 -22.478504 0.829838 -3.164423 1.764762 -2.789249 
21.556389 -22.075005 1.071338 -2.684296 3.358614 0.123051 
21.819889 -21.648504 0.505338 3.209819 0.444276 0.432224 
25.158890 -18.985504 1.047341 -3.443072 2.661888 -4.358634 
39.015396 -17.260006 2.165341 2.083464 1.674633 -4.392893 
-40.444603 -15.281005 2.788844 -5.283880 -1.458562 1.495988 
-19.190109 -5.884508 5.229347 2.789734 5.122768 1.847403 
-15.446610 16.389496 1.366364 2.293218 0.594001 5.744818 
-45.965611 18.795994 2.148364 0.223485 -4.907584 2.743954 
-40.504105 21.427996 0.925367 -1.283266 4.199590 0.229618 
-42.984104 21.746494 2.554866 0.152596 3.820730 -1.693916 
-34.480103 23.143999 4.307867 0.208463 5.282516 2.056056 
-31.318605 28.518000 0.498870 -0.741503 -0.829473 0.600338 
-31.370110 28.528496 0.519870 0.368205 -2.410174 1.139143 
-25.851610 36.049492 1.274878 -0.507843 5.616303 3.086920 
25.529388 -25.086506 0.820838 1.626945 1.286725 -2.233111 
25.665390 -25.048504 1.615838 -2.066349 -5.534198 1.294533 
25.452890 -25.083506 0.672838 -3.361440 -4.283347 2.026471 
25.357389 -24.860506 1.357838 -2.947828 -5.356952 0.778512 
40.265892 -20.900499 2.098341 4.901258 0.567678 1.366095 
19.781891 -24.553005 1.857338 3.136411 -4.778543 -0.362616 
20.205891 -24.514006 1.565338 -2.416327 -2.097687 2.858021 
21.127392 -22.634007 0.991838 -1.946673 0.789869 3.374931 
21.703890 -21.739504 0.851838 -4.884710 2.036851 -1.764479 
22.758390 -20.649004 1.181341 -3.381908 3.103969 -3.890566 
21.405890 -8.733005 0.958847 1.473443 -0.402826 5.998609 
20.780890 -7.360005 0.968347 0.613199 0.519114 6.153228 
21.443890 -4.188505 1.153847 0.100489 -0.286649 6.046907 
-5.803105 1.541495 2.182855 -3.175506 1.955825 4.783083 
-36.436607 2.546995 2.150357 -4.948452 1.961107 3.091165 
19.429890 16.947990 1.264364 -0.247697 -0.040754 6.161224 
-37.443108 17.201000 4.773364 0.293079 -6.015273 0.814723 
-39.789604 22.225994 0.780367 -3.104847 -3.149549 2.408960 
-39.466610 22.323494 1.651867 -0.604769 5.724601 -2.081572 
-40.288612 22.258995 2.260867 -1.444987 5.046296 -2.999834 
-10.101610 26.674496 1.345367 2.111259 1.165844 5.720880 
-31.354607 28.529493 0.516370 0.291798 0.775495 1.166634 
-42.360111 36.469997 2.545378 -1.740339 5.461366 -1.975049 
-45.470604 36.718494 2.438878 -2.101296 2.824994 0.035609 
-26.570610 36.602493 0.561878 -0.268334 1.904498 1.747717 
-14.353109 37.515999 1.036878 2.897125 -2.132705 3.341658 
20.365391 -25.468006 3.032838 -1.007423 -4.840485 0.420785 
21.988390 -21.179504 1.728841 0.946214 -1.583500 -1.584182 
23.064890 -19.263504 1.725341 1.203538 -0.403770 -1.906858 
9.821390 -15.732004 1.920841 -5.184982 0.369869 -0.289408 
35.918396 -16.282499 2.523342 -0.052853 4.102118 -3.737786 
23.927391 -13.690008 3.266844 1.131110 5.640798 1.897214 
11.860390 -12.070504 2.318344 -3.976482 4.192011 -0.244798 
0.580890 -10.178007 3.691344 4.061895 -0.872329 4.471492 
42.655891 -8.608006 1.251847 2.962106 -2.057388 -4.748080 
23.119890 -0.813005 1.427350 0.077374 -0.735680 5.989928 
3.317390 13.312996 1.562361 -0.958955 1.495152 5.811713 
-15.872110 18.031490 1.342364 2.023917 -2.856781 3.482629 
-25.338112 20.524996 4.306864 -0.096292 -5.008797 -1.664718 
-14.824110 20.184996 2.903864 2.171850 -0.893459 5.357130 
-31.388111 28.531498 0.532870 0.028174 -0.166259 0.077409 
-43.932106 30.993999 1.974875 -2.185323 -3.170337 2.684128 
-41.313110 32.587502 2.108875 0.214566 -4.359828 2.461964 
-23.086609 36.295494 2.575878 0.456902 4.815132 2.763601 
-13.840605 -26.040504 3.560838 -1.042652 -5.915556 -1.531207 
19.179390 -9.840005 1.586345 0.529780 2.629209 5.552223 
21.453892 -8.090505 1.067347 -0.558519 1.673057 5.161178 
3.719890 8.202995 2.384858 0.713300 0.598542 6.040149 
-18.209610 18.291494 1.648864 -1.622293 -2.360476 4.146993 
-21.292610 20.292500 2.153364 -1.404006 -4.942121 0.574890 
-41.298603 21.701496 1.834367 0.659273 1.622398 -1.131259 
-26.339109 23.887999 2.298867 -1.833600 5.128139 1.204256 
-21.088108 26.199501 2.371367 -2.303558 2.273944 3.617687 
-35.269608 29.819994 5.136375 -2.199939 -5.422609 -1.533582 
-15.880610 37.792995 2.737878 -1.865775 3.972756 3.163885 
25.179890 -15.403005 2.330842 1.015152 -1.259717 -1.595596 
21.629391 -8.146504 1.170347 3.609397 1.191279 0.849876 
21.637890 -8.162505 1.174347 0.533171 -0.148760 4.473964 
21.613892 -8.081505 1.177847 -0.171584 1.667640 2.070901 
-37.241604 -0.068008 4.118850 -4.750645 2.813831 2.759292 
23.071890 2.668495 1.663355 -0.821168 -0.148345 6.023178 
27.256889 5.927495 1.629858 0.997423 -0.203699 6.074671 
-0.934110 7.175992 2.323358 -1.296857 1.683515 5.763225 
24.149891 8.664995 1.565358 -0.938896 0.198381 6.072145 
-26.137609 11.479494 2.515361 -2.186192 3.954641 4.151464 
-20.278111 14.995495 2.214861 -0.957038 1.984574 5.765831 
-15.873110 24.274002 2.529367 2.471266 0.507466 5.638879 
-13.093110 31.184494 2.191370 1.940830 -0.456907 4.742679 
-44.720608 35.083496 3.491378 -4.984674 -1.889279 3.157830 
-15.912610 34.048000 2.767375 1.424458 1.502773 3.645545 
-18.127110 34.316994 2.538877 0.913301 0.385963 5.553216 
39.641895 -21.640005 2.929838 5.403505 -2.570952 0.980960 
-36.907104 -21.532003 4.311341 -4.388643 -3.630368 1.805826 
-20.284605 1.975994 2.942355 5.217086 -1.619059 2.981184 
3.559890 4.461995 2.715858 1.565711 -0.467404 5.723934 
-17.716610 12.235490 2.693861 2.026999 0.601715 5.730567 
-42.425610 17.733999 2.382364 -1.517010 -6.016491 0.492648 
-15.528111 18.731501 2.785864 3.257411 -2.231380 4.128798 
-15.538110 33.036999 2.067375 2.100507 -0.562829 5.621648 
-31.624105 34.410999 2.219378 -2.662301 2.049276 5.208836 
-20.511610 -25.157005 1.815838 0.838641 -6.164289 -0.244851 
37.707397 -24.241005 2.596338 3.580726 -4.301515 2.357526 
29.727390 -13.172006 2.807344 0.057753 4.930216 -2.324145 
39.200390 -14.641005 1.685344 -1.401965 -0.477230 -5.345840 
-16.123110 17.607494 2.904864 1.061858 -2.646114 1.320326 
-41.634605 21.511496 1.446364 0.031542 -1.847060 1.102817 
-41.648605 21.512989 1.451365 -0.717719 -3.208803 -1.050960 
-15.182610 29.566500 2.166370 2.073042 1.305508 5.471101 
-38.715103 38.032497 3.102378 1.272552 4.314812 -0.009555 
25.203892 -23.399506 3.527338 -2.819741 -3.445784 2.384257 
15.150390 -10.312013 4.310344 -1.655527 5.607626 -1.431553 
36.416897 -2.629008 5.730350 -5.397968 2.185224 2.121402 
-29.426611 19.585995 5.715366 0.599559 -5.572325 -1.330611 
-41.661606 21.515495 1.454364 -0.020880 -0.059699 -0.040626 
-26.231611 24.254496 3.875867 -3.141694 5.340751 -0.944557 
19.055889 -25.881504 3.345338 3.480797 -4.542632 -2.415668 
19.433390 -24.781506 2.530838 -3.482187 -2.904217 -0.988113 
19.866394 -20.558506 2.157341 1.412013 -0.282784 -0.467973 
19.932390 -20.711506 2.459341 0.051092 0.019284 0.019230 
19.508890 -24.077005 2.695338 -0.087047 0.437192 -0.756499 
19.870890 -20.546505 2.163341 1.477991 -0.312920 -0.481518 
32.931896 -14.379008 3.649344 1.145323 2.207990 -5.090783 
-39.173611 -8.528008 5.501847 -5.166415 0.589003 3.381950 
-4.989610 -2.175008 3.873350 -1.546116 1.991423 5.540829 
-7.823110 -4.562006 4.114847 -1.314993 3.239202 5.037689 
-14.567110 27.882496 2.726870 1.076951 -0.424098 5.263186 
-28.639109 36.006496 3.599378 -0.950700 4.117193 2.676482 
-25.332109 -26.433506 5.336838 -0.091659 -5.540855 1.068558 
-29.770611 -25.482504 5.474338 -1.554443 -5.506317 2.063252 
-8.104105 -25.020504 4.439338 2.884041 -5.162880 1.527975 
21.309391 -22.761003 2.312838 -0.680564 0.210468 -1.715036 
-38.378109 -18.484005 5.157841 -5.052083 -1.959210 2.371486 
38.017391 -0.560508 6.505350 -2.888473 3.328887 3.972127 
-40.603104 22.857994 3.434367 0.673293 5.884676 -1.857167 
-15.590605 26.985996 1.964867 1.099000 -1.104722 4.961110 
-20.650612 27.280996 3.116868 -0.825365 -4.231082 3.786394 
-42.876106 32.511993 3.778875 -1.809973 -4.660852 2.367548 
-33.260605 -23.994505 5.744338 -2.828843 -4.596299 2.469676 
25.518391 -24.064505 4.118838 -4.783064 -2.867504 -1.509112 
19.653894 -24.904005 2.694838 2.238822 -5.327877 -3.048678 
23.295889 -19.557505 1.977841 0.211704 -1.054099 -0.398769 
12.704889 -11.684507 5.848844 -4.310446 3.490738 1.361972 
2.019890 -0.355008 3.281355 2.117484 0.103837 5.763989 
-31.131111 32.364494 2.695875 -0.885250 2.801491 2.822719 
-27.973110 34.100494 5.125378 -0.962667 1.801810 5.010924 
-35.338604 33.876995 4.171877 3.215599 4.971938 1.801692 
32.044388 -25.558010 6.369838 -1.697495 -5.617866 0.211144 
22.214890 -24.619505 4.330338 1.853461 -5.456262 -1.177493 
-19.029110 -24.642506 2.650838 0.366048 -5.814687 0.567253 
-3.294110 -18.581005 4.817841 5.134215 -2.201192 0.126266 
11.484390 -20.930500 4.323840 0.499140 -3.293165 -3.780894 
10.647890 -19.922504 3.747841 -3.886695 -0.065335 -2.573416 
23.289391 -19.562004 1.991841 1.469702 -1.228830 0.287257 
23.646891 -19.031006 1.977341 -0.487484 1.974613 -0.695943 
41.443893 -17.295506 2.746341 4.236586 -1.601754 -3.367046 
36.992393 -13.687008 3.391344 -2.092571 1.079636 -5.559977 
44.631390 -9.397508 3.997847 5.292835 -1.448146 -2.075531 
0.840390 3.908993 3.239858 0.498868 1.050623 5.960797 
-47.909107 21.401995 3.336367 -3.976735 4.239663 -2.198791 
-49.398113 20.466999 3.402864 -3.536489 0.696488 -0.726022 
-18.030109 23.136995 3.684867 2.061743 0.189379 5.909798 
-44.865608 23.974495 3.875867 -0.245941 4.692703 -3.800423 
-17.398109 25.678989 3.680367 2.163778 0.553377 5.328595 
-39.897106 32.700993 4.802375 -1.846815 -5.331487 -0.304990 
-16.202610 36.607994 3.387878 0.502538 -0.301193 3.294858 
-41.877106 37.213997 4.122378 -2.305998 4.848580 0.394063 
21.886890 -21.840004 2.182838 -2.256416 1.367196 -0.337631 
-38.986107 -6.353008 5.686847 -4.883127 0.852128 3.332751 
0.589390 -4.414505 3.808347 2.393539 0.121464 5.756349 
-22.378609 10.708992 3.919861 0.024035 2.341675 5.616917 
-19.005606 29.015495 3.691870 1.333986 -1.962755 4.916534 
-20.478111 34.621502 2.935378 1.177592 3.006792 5.103684 
-24.479610 34.374001 4.773878 0.911067 2.197959 4.707074 
14.006391 -21.745506 4.320841 -3.743165 -4.238133 1.688565 
21.178391 -23.206505 2.687338 2.425676 0.278752 -1.631252 
21.169889 -23.212505 2.674338 1.310971 -3.733809 0.714110 
28.556890 -13.916509 5.861343 -1.797540 5.794652 0.909441 
42.666393 -16.190012 5.859341 5.710343 -2.123904 -1.172567 
45.073891 -3.562508 4.973350 5.414523 1.173400 0.830917 
34.653389 -8.181508 5.183845 -5.849084 2.185255 0.201399 
-20.094110 8.514492 3.951859 2.433389 0.368459 5.558049 
-48.786606 20.327984 5.957865 -3.091679 -2.177043 1.804327 
-46.736610 23.464497 4.588867 -4.365344 2.230644 -2.864025 
7.383895 -24.254505 3.305838 0.392017 -4.581684 -1.599219 
7.526390 -24.166004 3.153338 1.272249 -0.983743 0.617881 
7.531395 -24.154507 3.161338 1.845891 -1.204698 -1.430234 
6.316890 -23.815506 3.412838 -2.180576 -0.139594 -2.343763 
8.860395 -23.406506 4.436838 1.319024 -5.776898 -0.603783 
21.157890 -23.219006 2.658338 -0.043389 -0.049236 -0.023323 
21.185890 -23.204004 2.698338 0.082375 0.009800 -0.058391 
10.223390 -22.664005 3.221339 -1.489084 -2.164840 0.338887 
10.141391 -23.148506 4.069338 1.327314 -5.586314 -1.159638 
10.205890 -22.670004 3.218339 3.206171 -4.553996 4.555125 
10.290890 -22.785503 3.174338 -0.480118 -0.355194 -1.450784 
18.900391 -12.573507 3.656844 2.394539 3.472662 0.504107 
35.400394 -12.318009 4.205844 -0.784646 0.138391 -5.543742 
-9.989110 -5.626008 4.208847 -2.526976 4.737433 3.231968 
-1.381110 0.206492 3.798855 -0.116600 0.404811 6.018215 
-19.201611 18.942495 3.829864 -0.181609 -5.209026 1.326191 
-25.170109 25.108494 4.609867 -1.809118 5.180262 1.213117 
-23.143612 25.143995 4.935867 0.501712 3.020980 4.082206 
-20.451611 31.672489 3.770870 2.325666 2.207568 5.179878 
19.495890 -24.881004 3.042338 1.361366 2.480158 4.357968 
25.852890 -25.118011 6.054338 0.000847 -5.853231 -1.808752 
10.193390 -22.743504 3.242338 1.693806 -2.082239 -2.324608 
10.221390 -22.699005 3.214838 -3.944711 0.176942 -2.848364 
9.100390 -22.986004 3.749838 -0.131083 -1.997763 -4.766194 
-38.421104 -3.660508 5.391347 -4.824385 1.770687 3.037366 
16.637390 -25.527004 4.695337 -3.650367 -4.259905 2.437050 
20.452389 -26.469004 5.787337 0.801233 -5.895946 -0.933270 
-18.711605 -24.558506 3.126838 0.301137 2.160669 -1.458068 
-18.692110 -24.556505 3.142338 0.023598 0.294167 -0.067652 
6.289890 -24.432007 4.255338 -1.590548 -1.946222 0.509677 
11.404890 -22.728004 4.931338 3.144824 -3.572518 -3.761270 
-14.874105 -6.773508 4.783847 0.742274 5.351183 2.888404 
-21.447611 -3.826508 5.913847 4.626528 2.750151 3.019063 
-22.517109 -0.616508 6.175850 4.010082 1.055275 4.292310 
-21.460609 4.033492 4.831855 3.932176 -0.195330 4.792855 
-22.132608 18.730495 5.374364 0.337387 -5.007623 0.172672 
-17.914110 19.771490 3.999364 2.215273 -0.662088 5.538716 
-38.942604 -16.109505 4.791341 -5.290063 -2.180147 2.473964 
33.908890 -9.989508 3.823844 -3.330260 1.260824 -3.409847 
-34.511604 1.905492 5.854355 -3.104727 2.873939 4.277171 
-32.141605 18.885485 5.947364 1.362944 -6.049516 0.201863 
-19.139610 28.146500 3.858870 1.170118 -0.681938 5.827134 
-19.695604 30.042500 4.723370 2.187588 0.404750 4.649765 
-42.140610 37.165489 7.607878 0.688392 4.469217 1.147956 
-14.223610 -26.251505 5.842838 0.435867 -5.256742 1.992952 
-20.107109 -26.185005 5.275838 0.130462 -5.878595 -0.266313 
23.323391 -25.481005 5.713838 1.509623 -4.633639 -3.722421 
6.826890 -20.800505 4.796841 -2.857748 1.897129 -1.161515 
-35.032612 21.321489 6.060364 0.957371 4.574531 1.240891 
20.267889 -25.010506 4.182837 1.319408 -4.121698 -1.007108 
-38.227608 -14.813508 7.455843 -4.427890 -1.142466 3.555964 
-12.325610 -7.765508 5.916847 0.043719 4.074058 4.606183 
45.033394 -8.308508 6.954347 5.865222 -0.018078 0.951258 
-23.401110 27.600000 5.503867 1.588125 -3.684332 3.585187 
-32.976604 32.293995 4.531875 1.803637 5.452489 1.681301 
-29.645611 31.952496 5.295876 -0.164925 5.058619 2.548033 
19.101389 -26.406511 6.031838 -1.683397 -5.075773 2.061695 
-6.377110 -22.776506 4.912838 4.494483 -3.505078 0.813996 
-2.590610 -4.338008 4.630350 0.598702 1.576164 5.926152 
-22.259605 23.788996 4.725867 1.724136 0.931723 5.858107 
-23.687611 32.635994 4.539875 1.257137 1.922047 5.667974 
-22.733109 30.847494 5.393370 1.707660 3.173000 5.126903 
-38.901104 36.731495 6.045378 0.908496 2.989279 3.291019 
24.031391 -23.866005 4.999838 5.115036 -2.547571 -0.366674 
-2.156610 -14.444009 4.926343 5.281645 -0.545245 2.624412 
-28.014109 27.027990 6.113367 -0.229784 -5.255151 1.134328 
20.904396 -25.025005 4.624838 1.125520 -5.349216 -1.742701 
14.275895 -21.420010 6.148341 -0.719230 -2.864431 -1.806441 
11.789390 -16.129511 7.140841 -4.708816 0.128895 3.352435 
-36.069607 -2.192008 7.017350 -3.208104 2.110228 4.684367 
-46.901611 26.154989 6.546867 1.259060 5.466557 -1.457505 
-34.225105 28.733990 7.076370 -1.043384 -6.031492 -0.748637 
33.960388 -26.424011 6.566837 -0.082779 -6.030370 0.045476 
-38.804104 -11.412508 6.757844 -4.841899 0.302450 3.588081 
-5.935105 -7.615007 5.385345 -1.756649 3.138968 4.452617 
-48.083111 21.084484 7.981365 -4.152426 -1.443277 1.490005 
-39.664604 23.110991 6.271867 1.906336 5.519987 1.385183 
-28.009109 28.223486 7.566870 1.344310 -3.882371 4.525795 
20.690889 -25.080505 4.731338 0.724428 -0.264362 0.592057 
20.726391 -25.078505 4.768338 2.190640 -3.035301 -3.979124 
20.756390 -25.191505 4.814838 2.644163 0.240893 -3.390260 
38.775894 -23.084009 8.420838 4.523364 -4.122563 0.567559 
23.920889 -18.843512 9.640841 -5.097273 -0.213026 -1.669020 
23.563389 -14.663509 6.815843 -0.057390 5.776134 2.272114 
-2.685610 -11.300508 5.615844 4.575462 0.464920 3.789280 
-21.201611 19.513988 5.950364 2.254341 -1.263621 4.258615 
-46.584606 23.318495 7.528867 -4.120889 -0.094061 2.065199 
-43.627609 36.427998 7.278878 -4.163713 1.601623 1.756590 
