-47.550415 -20.914690 0.369854 -0.891000 0.368200 0.265400 
-13.521501 6.204013 9.357563 0.160000 0.181000 0.970400 
15.704479 14.238777 6.835065 0.624500 0.344400 0.700900 
17.273449 12.902147 5.337784 0.795300 0.269100 0.543300 
15.514229 12.355474 8.480253 0.570500 0.435000 0.696600 
2.936871 1.472664 11.115120 -0.056800 -0.135000 0.989200 
-2.068802 7.764182 11.092491 -0.145500 0.242000 0.959300 
6.425028 7.352963 11.110771 0.981500 0.109200 0.157000 
-27.333794 -39.703201 -6.848103 0.643000 -0.762900 0.067400 
-28.074924 -39.593239 -5.663105 0.350700 -0.802200 0.483100 
-20.172958 -6.280718 9.709358 0.351000 -0.350900 0.868100 
-18.749550 -7.252587 8.415810 0.604700 -0.514600 0.607800 
-21.303616 -9.484447 8.592007 0.529000 -0.627200 0.571600 
31.487217 12.234463 -1.692224 -0.491800 -0.377800 -0.784400 
31.345764 11.166672 -0.742628 -0.580900 -0.755000 -0.304100 
-18.443314 13.440252 8.725283 0.135100 0.475600 0.869200 
-23.091431 12.456322 9.501215 -0.014300 0.440700 0.897500 
-23.392029 13.867323 8.361143 -0.173100 0.748200 0.640400 
10.607752 -20.166632 2.580993 -0.169500 0.263800 -0.949600 
12.843819 21.969419 -5.888994 0.087600 0.265500 -0.960100 
-20.958378 4.519410 11.078453 0.050000 0.235500 0.970600 
-30.198711 5.538308 10.606201 -0.068500 0.350500 0.934000 
-20.199890 5.807382 10.442822 0.092300 0.336200 0.937200 
-4.627890 -7.078312 -4.931110 -0.286400 -0.833600 -0.472300 
-15.672247 -5.485404 3.431175 0.298500 -0.951300 0.076400 
-18.467438 -6.071665 2.570709 0.293200 -0.844200 -0.448600 
-36.268677 -16.071129 -1.719688 0.850000 -0.172200 -0.497800 
-36.015167 -16.569489 -0.602638 0.961700 -0.235800 -0.139400 
-28.959232 -35.658974 -5.109965 0.621100 0.585500 0.521000 
-35.353737 -9.157099 0.758063 0.865700 -0.005400 0.500400 
31.860275 15.111551 1.723564 -0.615600 -0.162800 0.771000 
31.301605 13.527542 1.403964 -0.760000 -0.076400 0.645400 
30.966465 15.326551 0.489845 -0.963000 -0.194600 0.186600 
-34.501213 -39.079536 -7.395922 -0.265600 -0.963400 0.035200 
-34.352131 -38.637581 -5.200480 -0.227300 -0.827900 0.512700 
-32.823792 -39.741577 -6.866585 -0.200200 -0.976000 0.085300 
12.930965 -16.999748 -4.129006 0.474000 0.181200 0.861700 
12.904404 -18.976412 -3.382008 0.468500 0.265500 0.842600 
-32.565777 -20.567930 8.689611 0.497500 -0.213700 0.840700 
-33.313305 -23.836100 8.377302 0.701200 -0.296100 0.648500 
-34.056938 -24.184626 8.837642 0.412300 -0.076900 0.907700 
-37.423553 -32.993484 8.570978 -0.678300 0.129600 0.723200 
-37.526657 -30.319643 7.237850 -0.957800 0.286000 0.030000 
-16.770912 15.347412 6.737982 0.137900 0.769600 0.623500 
-21.056847 15.358063 6.613875 -0.093900 0.874200 0.476300 
14.296391 17.637922 -6.250114 0.286300 0.253800 -0.923900 
15.807281 15.366451 -6.277104 0.554200 0.210200 -0.805400 
14.344898 -20.865343 -6.391495 0.924200 0.149000 -0.351600 
14.602577 -22.502970 -4.897089 0.977500 -0.137500 0.159600 
-41.120640 -12.869671 2.335104 -0.285100 0.136500 0.948700 
-32.757450 3.657764 -1.495701 -0.983500 -0.172600 0.053200 
13.030693 7.138816 11.089712 0.135400 0.079400 0.987600 
13.174843 -1.603044 11.059011 0.092400 -0.237800 0.966900 
5.346220 -0.229377 11.093649 -0.052700 -0.201300 0.978100 
-31.355011 -33.285667 5.414220 0.620300 0.495300 -0.608100 
-31.745975 -31.693712 6.255977 0.856900 0.404100 -0.320000 
-36.563786 -39.274223 8.727406 -0.393100 -0.811900 0.431600 
-32.953976 -38.754852 9.650965 -0.054800 -0.613000 0.788100 
-4.285383 12.338724 8.510633 -0.232300 0.586600 0.775900 
-6.602674 11.829695 8.158793 -0.262600 0.525000 0.809500 
-48.511856 -23.154902 -0.515547 -0.979300 0.164000 -0.118500 
-47.471947 -22.931791 1.505819 -0.677200 -0.043500 0.734500 
-48.540443 -24.075041 -0.631689 -0.936000 -0.313200 -0.160400 
-32.314224 -28.192835 -7.544468 0.954400 0.235000 -0.184100 
-33.328564 -27.035517 -5.626898 0.687400 0.209300 0.695500 
-20.936390 16.435472 3.478455 -0.111500 0.968100 0.224400 
-38.003456 -21.029810 0.529026 0.613400 -0.784100 0.094400 
9.622725 -28.971109 -5.698433 -0.990100 0.010900 -0.139700 
-32.931232 8.720495 -3.366148 -0.940600 -0.030300 -0.338200 
-33.721451 11.427921 -2.474600 -0.525100 0.261500 -0.809800 
-33.711361 8.062072 -2.183970 -0.446400 -0.363400 -0.817700 
-34.547337 -13.992230 5.584215 -0.540300 0.363800 -0.758700 
-32.136208 -13.430910 4.967896 -0.302300 -0.064600 -0.951000 
-33.315418 -12.327710 5.649866 -0.673200 0.261900 -0.691500 
-28.547020 11.996851 7.917803 -0.430000 0.686100 0.586800 
-26.586380 11.093437 9.639002 -0.252300 0.478800 0.840800 
-29.030453 14.317114 2.115023 -0.297500 0.923500 0.242100 
13.776749 -39.461044 2.560075 -0.248000 -0.836700 -0.488300 
11.272188 -38.163559 2.784540 -0.506500 -0.631800 -0.586700 
10.848845 -38.458191 4.324008 -0.637700 -0.770100 -0.010400 
-15.479059 -0.665861 -9.613302 0.457200 -0.313100 -0.832400 
-17.287729 -3.673443 -9.525715 0.510500 -0.380500 -0.771100 
38.635742 14.396685 1.448771 0.830500 -0.404100 0.383200 
37.664471 13.191914 1.519503 0.469900 -0.792800 0.388000 
-17.036989 -6.207996 4.398148 0.552700 -0.819700 -0.150200 
-19.312496 -8.157476 4.302326 0.548100 -0.717900 -0.429000 
-17.926849 -7.289746 5.969337 0.721500 -0.692400 -0.003800 
9.728216 33.912479 -3.159400 -0.690300 0.583000 -0.428500 
-16.266972 16.536234 -4.498054 0.049500 0.944900 -0.323500 
-21.836220 16.721235 -1.787605 -0.187000 0.972800 -0.136300 
-20.828541 16.144342 -4.231315 -0.130100 0.943900 -0.303400 
-41.277828 7.534967 1.637921 -0.562600 0.266300 0.782600 
-41.437351 8.442020 0.577454 -0.885300 0.441400 0.146500 
2.466351 -5.294415 8.838766 -0.042500 -0.660400 0.749700 
3.838921 -6.469094 7.192577 0.020300 -0.886700 0.461900 
-44.239635 -14.578000 -1.585944 -0.665700 0.290200 -0.687500 
45.863926 35.584385 0.424433 0.480600 -0.628000 0.612000 
46.348972 36.444263 -0.766118 0.008300 0.049400 -0.998700 
45.089218 35.052906 -0.648488 0.510700 -0.443000 -0.736800 
13.444828 -21.866388 -3.227247 0.690100 0.009800 0.723700 
-46.322315 -20.141623 -1.707138 -0.502400 0.228100 -0.834000 
-0.683051 0.158801 -10.808969 -0.078600 -0.278500 -0.957200 
8.397074 -8.893848 -6.551182 -0.919900 -0.345700 -0.185200 
8.005392 -6.474040 -8.445694 -0.452200 -0.557400 -0.696300 
7.161871 -7.183228 -6.805912 -0.547900 -0.763200 -0.342500 
-33.083828 -25.039682 7.366092 0.953200 -0.089200 0.289000 
-32.587635 -28.485620 6.422621 0.924700 0.193900 -0.327600 
-32.480076 -28.805639 7.669851 0.913900 0.188800 0.359200 
36.500320 26.507374 2.846065 0.905600 0.067600 0.418700 
-31.259193 -33.815720 8.425058 0.528100 0.529000 0.664300 
-28.727833 -35.965965 8.894058 0.606300 0.547300 0.577000 
-2.423043 13.874788 -7.994275 -0.263100 0.676100 -0.688200 
-6.417503 11.278738 -8.555185 -0.301800 0.511400 -0.804600 
-5.489971 9.956108 -9.716829 -0.315300 0.380100 -0.869500 
10.970207 -32.400803 6.351300 -0.320700 0.020300 0.947000 
12.648918 -33.685425 6.711305 0.209600 0.251500 0.944900 
15.058651 -33.746185 -4.616801 0.791600 0.611000 -0.002700 
13.540348 -31.071318 -5.478371 0.903000 0.217100 -0.370700 
25.173256 38.945156 4.764802 0.130000 0.707300 0.694900 
24.586433 39.919544 3.575073 0.073500 0.956500 0.282100 
28.349022 39.497829 3.685642 0.211400 0.822000 0.528800 
-25.783470 11.127087 -9.952715 -0.149200 0.375200 -0.914900 
-27.990730 12.053106 -8.415487 -0.382000 0.688800 -0.616100 
-29.268631 9.637554 -9.655657 -0.376000 0.411500 -0.830200 
-42.934132 -11.582240 1.571188 -0.572600 0.091900 0.814600 
-30.589577 -17.853502 7.820902 0.857500 -0.413900 0.305400 
-30.908356 -16.245201 9.023731 0.352200 -0.201000 0.914100 
13.301437 -26.347227 -5.835421 0.896100 -0.138200 -0.421800 
25.180740 20.493273 0.360696 -0.398300 -0.913900 -0.077600 
23.183907 20.743029 -2.276744 0.007100 -0.991000 -0.133800 
23.464928 20.851652 2.539098 -0.171900 -0.953900 0.245700 
4.418985 26.188915 2.445685 -0.715100 0.421700 0.557400 
6.156017 27.961704 3.382267 -0.632400 0.323800 0.703700 
4.622858 23.853567 3.595908 -0.444100 0.203100 0.872600 
-11.610304 16.723776 0.459694 0.253400 0.965900 0.052900 
22.984123 32.471149 6.054480 0.073400 -0.198500 0.977400 
25.479095 33.212536 5.599431 0.202300 -0.262500 0.943400 
35.888420 12.319813 0.457404 0.328200 -0.911200 0.248900 
-29.114315 -15.368316 -6.589313 0.647900 -0.753900 -0.108700 
-30.199207 -16.785156 -5.843807 0.741700 -0.434800 0.510700 
-29.056705 -15.050485 -5.582374 0.504000 -0.610900 0.610500 
-33.074245 -21.334867 5.361284 0.559600 -0.226600 -0.797100 
-33.784695 -25.722647 5.507161 0.640800 0.045600 -0.766400 
10.293718 19.212690 -6.330245 0.021200 0.337900 -0.940900 
9.193888 16.774572 -7.900104 0.027600 0.579700 -0.814300 
30.528725 17.153681 -1.297436 -0.673100 -0.603400 -0.427600 
30.215065 17.007093 0.353516 -0.757000 -0.648000 0.084500 
8.878752 -12.756720 -6.607023 -0.953200 -0.077700 -0.292100 
9.841566 21.881010 -5.565193 -0.125400 0.303800 -0.944400 
15.939552 -8.052432 8.471128 0.769200 -0.344700 0.538000 
16.200912 -9.203813 6.585388 0.935900 -0.348000 0.054800 
15.369434 -11.005115 7.325426 0.847600 -0.398000 0.351000 
9.629047 20.189245 6.106326 -0.066400 0.352900 0.933300 
11.454750 18.779371 6.398914 0.137400 0.321700 0.936800 
19.691711 -1.050069 -5.115419 0.973800 -0.175100 -0.144700 
19.511620 -1.729368 -2.494581 0.961800 -0.241900 0.128200 
-36.349766 -8.688138 1.705894 0.549400 0.148800 0.822200 
-31.058189 1.679615 -11.018389 -0.346900 -0.056900 -0.936200 
12.073910 28.448879 5.049361 -0.084000 -0.157800 0.983900 
12.166916 31.641724 5.944951 -0.243800 0.073500 0.967000 
38.354641 17.309843 2.510266 0.617500 0.033500 0.785800 
10.355423 -21.733427 -7.895288 -0.382000 -0.192300 -0.903900 
9.662222 -13.029951 -7.601065 -0.601200 -0.119700 -0.790100 
9.176693 -21.884657 -6.948117 -0.761100 -0.125100 -0.636400 
-32.015282 -34.673386 4.317445 0.200400 0.272800 -0.940900 
-34.177933 -33.484978 4.289550 -0.045100 0.262800 -0.963800 
-32.787312 -36.434494 4.071119 0.007800 -0.035200 -0.999300 
-27.698627 -13.008124 -4.544775 0.212000 -0.578800 0.787300 
-29.567856 -12.892186 -4.345553 -0.094500 -0.250600 0.963500 
-38.651085 -36.927368 -6.684481 -0.937900 -0.226400 0.262700 
-37.257412 -38.226746 -5.371493 -0.502600 -0.664500 0.552900 
-37.434902 -38.693047 -7.051513 -0.502700 -0.863400 0.042600 
-32.223019 -1.209565 -9.365351 -0.762000 -0.128900 -0.634500 
9.975866 -33.324158 -6.023331 -0.754000 -0.141000 -0.641500 
9.279924 -33.550659 -4.719971 -0.993700 -0.089200 -0.067300 
9.056265 -30.116854 4.510311 -0.995500 0.092200 -0.019000 
-38.220268 -34.788696 7.678188 -0.948900 0.238800 0.205900 
-32.329788 6.763039 8.450531 -0.796500 0.326100 0.509200 
-33.250530 3.540609 8.831219 -0.860000 0.183700 0.476100 
18.110771 -0.746387 -9.092340 0.789000 -0.136400 -0.599000 
18.041931 5.071241 -9.313717 0.724800 0.126500 -0.677300 
13.441528 -21.919481 7.616853 0.535600 -0.074600 0.841200 
12.376556 -23.979727 7.255651 0.177400 -0.257500 0.949800 
16.143280 1.845126 10.943911 0.393800 -0.013800 0.919100 
-35.673687 -15.322316 -8.542995 -0.672900 0.293100 -0.679200 
-36.659828 -16.253345 -7.034657 -0.965900 0.239800 0.097400 
-36.518764 -20.284494 -8.483315 -0.818600 0.032000 -0.573400 
-35.625603 -20.940489 -5.157999 -0.351300 0.101100 0.930800 
-36.765648 -30.574499 -5.704869 -0.693700 0.095600 0.713900 
-36.601753 -21.338217 -5.643040 -0.785500 0.136900 0.603500 
-30.587608 -0.333572 10.759790 -0.375200 -0.156000 0.913700 
-31.828720 -1.469501 9.676111 -0.656300 -0.122100 0.744600 
17.992439 13.576593 -4.319036 0.840600 0.117000 -0.528900 
18.565819 11.266832 -3.746809 0.965100 0.079300 -0.249700 
35.552692 34.349743 -1.808511 0.579200 0.412800 -0.702900 
34.268970 37.129696 -0.603807 0.723900 0.680100 -0.115700 
33.071621 36.559467 -4.013189 0.684900 0.371300 -0.626900 
-27.274761 -39.674149 7.400837 0.663800 -0.743200 0.083700 
-31.420303 -39.632957 8.777676 -0.013100 -0.901200 0.433200 
13.655190 -36.548958 -1.190783 -0.119000 0.173400 0.977600 
11.500648 -37.453232 -2.204443 -0.431800 -0.339300 0.835700 
19.473061 10.373329 1.437822 0.960500 -0.167000 0.222400 
19.672989 11.220348 -0.913355 0.979000 -0.120100 -0.164600 
13.660320 -38.615646 6.796338 -0.128800 -0.466700 0.875000 
17.629799 -39.423561 5.445068 0.435800 -0.773700 0.459900 
13.258209 -39.320320 5.975087 -0.252000 -0.822800 0.509300 
30.717525 30.667431 5.168881 0.144200 0.322600 0.935500 
8.711016 33.492939 1.133130 -0.784000 0.610000 0.114600 
-32.441803 2.415938 10.084391 -0.705100 -0.033100 0.708300 
-31.006351 4.066828 11.052811 -0.373000 0.176200 0.910900 
1.492369 -0.193497 10.328539 -0.087500 -0.254900 0.963000 
3.877459 -1.754697 10.396090 -0.094100 -0.249600 0.963700 
-0.330889 -2.858826 9.865911 -0.117400 -0.325700 0.938100 
-32.423416 -9.666300 5.192597 -0.764200 0.066700 -0.641500 
-33.491936 -11.002460 6.519787 -0.942100 0.248500 -0.225000 
-23.472309 13.652925 -8.575846 -0.135000 0.731500 -0.668300 
27.184986 37.778996 5.609893 0.173800 0.454900 0.873400 
23.922077 37.816525 5.791083 0.091000 0.346800 0.933500 
12.934433 9.036766 10.872633 0.258000 0.185000 0.948200 
28.198826 18.534533 0.288437 -0.527800 -0.849200 -0.011700 
27.883755 19.134581 2.324433 -0.335200 -0.866000 0.371000 
13.093460 -39.541283 5.032066 -0.323300 -0.939100 0.116700 
-17.621868 -5.668203 -8.533943 0.609700 -0.536500 -0.583400 
-19.577988 -8.496485 -8.055832 0.625100 -0.625800 -0.466500 
-17.498280 -6.663915 -6.297474 0.713200 -0.692300 -0.109700 
-3.030292 2.021181 -11.059469 -0.155300 -0.157800 -0.975200 
-32.105862 -39.482330 5.358327 -0.148800 -0.870700 -0.468600 
21.531898 29.703770 5.078339 -0.094500 -0.091800 0.991300 
30.848267 12.832561 -0.583818 -0.986800 -0.098800 -0.128500 
31.527035 11.842232 1.230002 -0.560900 -0.528100 0.637600 
-23.586208 15.401997 -5.247827 -0.222600 0.920900 -0.319900 
-26.287510 15.123085 -3.171827 -0.293400 0.928400 -0.227800 
-27.081188 -5.314157 2.103947 -0.234000 -0.435500 -0.869200 
-29.916870 -5.240898 3.055618 -0.458100 -0.225600 -0.859700 
-29.207027 -9.320080 3.673635 -0.202800 -0.162100 -0.965700 
12.346508 -29.068842 -3.419392 0.439200 0.142900 0.886900 
8.289833 -8.063619 -4.360906 -0.621600 -0.730100 0.283800 
7.728281 -6.803289 -1.746212 0.059600 -0.962200 0.265500 
-23.466850 16.275122 1.462902 -0.212700 0.972600 0.093900 
-27.118332 15.471884 -0.219074 -0.343900 0.937600 -0.050400 
-23.867039 16.008341 -1.821525 -0.256300 0.955400 -0.146200 
25.715698 37.508923 -5.960946 0.125700 0.260400 -0.957200 
27.491032 36.057972 -6.004247 0.255600 0.046200 -0.965700 
29.372684 36.721043 -5.164418 0.220900 0.193300 -0.955900 
-0.779909 -5.740409 -8.342262 -0.142500 -0.632900 -0.760900 
-4.427159 -5.377300 -7.305924 -0.357200 -0.591300 -0.723000 
-1.093399 -6.979800 -6.825993 -0.138000 -0.830600 -0.539400 
-43.927372 0.717380 -0.462659 -0.999000 0.002900 -0.043800 
18.436909 -37.590012 -4.452281 0.946200 0.314100 -0.078000 
18.241978 -39.328606 -4.398623 0.737100 -0.674100 0.047300 
18.306488 -37.933128 -3.261843 0.882600 0.049800 0.467400 
-3.391190 -3.424999 -8.870331 -0.274800 -0.463500 -0.842400 
-28.815815 -35.532227 5.381748 0.668600 0.629100 -0.396300 
-27.311432 -37.475891 5.336087 0.814500 0.212900 -0.539700 
-26.964371 -37.349197 6.616868 0.948600 0.313400 -0.043100 
17.133263 10.422747 7.807425 0.729600 0.404300 0.551500 
-28.690975 -38.722847 4.445256 0.274900 -0.486900 -0.829100 
19.633144 31.570278 -5.424571 0.062000 -0.467000 -0.882100 
17.548042 8.888296 8.492193 0.727700 0.291300 0.620900 
13.921623 15.487984 -7.275216 0.395000 0.433100 -0.810100 
16.130939 13.896914 -6.532135 0.678600 0.367200 -0.636100 
14.767376 34.437733 5.603083 -0.276500 0.330800 0.902200 
14.987446 36.926632 4.415162 -0.428100 0.560100 0.709200 
25.212631 21.955030 5.448057 -0.211200 -0.536600 0.816900 
28.114658 22.421267 5.930678 0.031800 -0.324600 0.945300 
17.120071 9.519564 -8.609426 0.699300 0.334100 -0.631900 
18.517281 7.823024 -7.380076 0.880700 0.267300 -0.390900 
-35.412941 8.580975 -2.030681 -0.012200 -0.118900 -0.992800 
13.633690 13.488445 -8.823835 0.391100 0.505800 -0.768900 
11.323021 15.262451 -8.547302 0.275900 0.597300 -0.753000 
9.626547 14.507383 -9.630705 0.045800 0.517900 -0.854200 
-11.345320 -5.572534 -1.596412 -0.225300 -0.961000 -0.160300 
-31.026737 -5.013881 9.855488 -0.366200 -0.113300 0.923600 
11.484226 -16.265430 -3.971317 -0.073200 0.126700 0.989200 
11.475983 -10.585359 -3.967695 -0.046700 -0.227000 0.972700 
-31.036457 -15.520886 -5.079235 0.131300 -0.183900 0.974100 
-4.027523 15.810598 -1.712234 -0.256500 0.962100 -0.091900 
-3.980723 15.942408 1.750813 -0.251200 0.962600 0.100900 
-9.143873 15.668316 3.551087 0.078000 0.963000 0.257900 
-33.894791 2.273690 7.647059 -0.982500 -0.066000 0.174200 
10.036417 -35.737747 -2.448393 -0.707000 -0.100100 0.700100 
-28.246361 14.984583 0.167544 -0.276800 0.960200 0.036900 
-31.183140 14.532801 0.399066 -0.127400 0.966300 0.223400 
-18.199139 1.128539 11.124769 0.204300 -0.046700 0.977800 
12.413189 -23.183882 -2.560389 0.398600 -0.214500 0.891700 
13.038868 -25.879992 -3.616789 0.691400 -0.108600 0.714300 
-3.815220 -8.508573 0.816597 -0.171400 -0.982200 0.076700 
41.729828 32.525043 -0.319518 0.609200 -0.792100 0.037400 
39.900581 31.515682 0.336110 0.527700 -0.740200 0.416600 
-35.006134 -32.559952 -4.960591 -0.204200 0.221100 0.953600 
-34.240807 -26.689310 -5.182067 0.341900 0.060900 0.937700 
-32.895115 -30.389078 -5.504441 0.415900 0.168500 0.893600 
9.609426 -35.967369 3.478616 -0.968100 -0.147400 -0.202400 
10.123518 -36.933365 2.681818 -0.724800 -0.355800 -0.590000 
10.174356 -34.132652 2.564578 -0.624000 0.086000 -0.776700 
13.252541 -36.400223 1.334665 -0.153700 0.140900 -0.978000 
-38.452534 -37.222435 -7.813792 -0.890200 -0.279900 -0.359500 
-38.746708 -34.401230 -7.011641 -0.966100 0.244900 0.081500 
10.143467 23.016417 5.061669 -0.081500 0.249500 0.964900 
6.048037 19.091394 5.915345 -0.217500 0.448900 0.866700 
-0.406063 12.469433 -9.704855 -0.126500 0.468000 -0.874600 
3.364687 16.306971 -7.416447 -0.201300 0.653700 -0.729500 
0.366117 16.044710 -6.647995 -0.290200 0.767200 -0.571900 
6.161890 16.330610 -7.839104 -0.114200 0.557000 -0.822600 
13.531952 6.297063 -11.101067 0.098300 0.045400 -0.994100 
-46.976574 -25.128309 0.727659 -0.386000 -0.762500 0.519200 
34.016006 18.225912 3.048144 -0.111100 0.005700 0.993800 
17.181358 -35.979004 3.627739 0.736200 0.636100 -0.230900 
15.924309 -36.604561 1.546850 0.418700 0.317700 -0.850700 
33.669769 12.084850 1.427294 0.143000 -0.727800 0.670700 
12.703991 -36.116768 7.018537 -0.128300 -0.062600 0.989700 
16.287926 -37.956238 6.792628 0.317500 -0.133100 0.938800 
-5.643239 -5.028124 6.603378 -0.391400 -0.671400 0.629200 
-6.629109 -3.760467 7.304430 -0.353000 -0.562400 0.747700 
-3.676040 -4.918965 8.003698 -0.323900 -0.558300 0.763800 
-33.127960 7.057620 1.775639 -0.790600 -0.446300 0.419100 
-33.100719 9.122320 3.229913 -0.909700 -0.023400 0.414600 
6.170959 8.579685 -11.089039 -0.055300 0.136400 -0.989100 
-32.285896 -29.782774 -6.153763 0.848200 0.223900 0.480000 
18.903069 9.128990 -1.605777 0.995100 -0.061000 -0.077800 
18.774582 7.054778 0.282113 0.988200 0.152800 -0.012300 
26.884995 35.913631 6.065972 0.161100 0.008800 0.986900 
-33.977531 12.676434 -2.001466 -0.055800 0.371000 -0.926900 
-37.498619 1.287631 -1.715681 0.634500 -0.032200 -0.772200 
-41.976238 -18.719992 -2.915394 -0.171400 -0.175400 -0.969500 
-41.923237 -15.408479 -2.935146 -0.246800 0.091400 -0.964700 
-43.593784 -20.046469 -2.172448 -0.151700 -0.065600 -0.986200 
31.501457 24.112024 -6.022001 0.182700 -0.233100 -0.955100 
35.285187 24.741535 -4.511442 0.644200 -0.251800 -0.722200 
34.330387 25.888851 -5.603803 0.465700 -0.192600 -0.863700 
-12.658459 4.509499 -9.222359 0.204500 -0.017200 -0.978700 
-13.228601 1.325658 -9.099081 0.287500 -0.234900 -0.928500 
-31.111675 -12.820601 4.334337 -0.266000 -0.205400 -0.941800 
-31.209969 -6.877900 4.104347 -0.558300 -0.088000 -0.824900 
1.271734 20.567816 1.893514 -0.749300 0.367800 0.550700 
3.049194 23.895658 2.398966 -0.703700 0.339000 0.624300 
11.129946 -28.758539 6.963032 -0.156300 -0.094400 0.983200 
9.913267 -31.633509 -6.571358 -0.682300 -0.086500 -0.725900 
19.663895 -1.560232 4.712609 0.970200 -0.228600 0.079700 
-24.768280 10.853020 10.049654 -0.038100 0.242700 0.969300 
27.037117 19.275141 -1.656547 -0.416200 -0.906600 -0.068900 
30.089752 39.586590 -1.984811 0.348600 0.907400 -0.234800 
29.845104 39.936245 0.330123 0.255500 0.966800 -0.007500 
27.271088 39.963573 -2.307660 0.063400 0.991700 -0.111900 
11.875076 -23.146811 2.288069 0.207400 -0.140100 -0.968100 
-32.215305 -8.855888 8.412973 -0.763000 0.087500 0.640400 
-36.714924 -19.817514 -6.636919 -0.960400 0.080900 0.266700 
34.041916 21.749540 -3.715341 0.378600 -0.308800 -0.872600 
19.465794 0.774228 6.413441 0.952100 -0.096600 0.290000 
18.520905 -3.584573 6.852270 0.891700 -0.347900 0.289500 
-18.319937 -5.913924 -2.562015 0.400600 -0.759200 0.512900 
-20.588367 -5.763626 -1.622845 0.018000 -0.797100 0.603600 
-26.054031 15.393572 2.659237 -0.302000 0.928700 0.215000 
14.063599 -37.826431 1.169927 -0.132600 -0.254200 -0.958000 
12.989254 -16.496563 7.627764 0.605300 -0.173900 0.776700 
13.533466 -16.578934 6.693374 0.936900 -0.217200 0.273700 
-35.300106 -13.637207 -7.067286 -0.853500 0.519500 0.041700 
42.138561 34.568272 -1.524519 0.060600 0.350400 -0.934600 
43.570614 35.730434 -0.643232 -0.170400 0.635200 -0.753200 
-2.373482 0.177994 10.345100 -0.121800 -0.263000 0.957100 
-37.309086 -33.633667 5.704780 -0.749800 0.227500 -0.621300 
-38.705906 -35.739960 6.445976 -0.949100 0.139100 -0.282400 
-14.911041 8.397602 8.807602 0.145400 0.276300 0.950000 
-16.495350 11.163071 8.865023 0.249500 0.174800 0.952500 
-14.664293 12.998991 7.642864 0.263500 0.378900 0.887100 
-36.628605 -29.348883 5.636930 -0.764700 0.092000 -0.637700 
-36.297031 12.045120 1.956930 -0.158200 0.245000 0.956500 
-38.774181 11.209312 1.562163 -0.429700 0.442800 0.786900 
-19.509281 8.485081 9.384041 0.152500 0.189500 0.969900 
-34.596031 8.993752 2.082422 -0.157000 -0.150200 0.976100 
47.653248 36.455944 0.460883 0.496200 -0.625000 0.602600 
19.193989 7.556829 4.384553 0.963400 0.265900 0.034000 
18.449211 9.200197 6.464445 0.900300 0.289900 0.324800 
18.903542 8.963692 2.306691 0.997600 -0.012400 0.068200 
-32.042870 12.465851 2.212432 -0.479200 0.517200 0.709100 
-35.147198 -26.811853 8.995411 0.039300 -0.004400 0.999200 
-27.238052 -37.375175 7.971099 0.858700 0.384000 0.339200 
32.216576 17.440104 2.757813 -0.256300 -0.259300 0.931200 
-32.094948 -8.065154 -5.380173 -0.810600 -0.022300 0.585100 
-28.533680 5.487575 -11.079540 -0.077400 0.228000 -0.970500 
-37.562035 -33.663994 -5.770792 -0.711100 0.258100 0.654000 
-23.201500 15.419849 5.366545 -0.238000 0.910200 0.339000 
17.762039 4.305696 9.543142 0.641700 0.150500 0.752000 
18.066879 6.224047 8.455780 0.757100 0.215100 0.616800 
22.708282 39.537251 5.038924 0.067400 0.781200 0.620700 
37.060669 20.302954 -2.769797 0.411400 0.112900 -0.904400 
34.608559 20.083239 -3.110225 0.196200 -0.129600 -0.972000 
37.420311 15.772137 -2.991207 0.248900 -0.135200 -0.959000 
-33.112240 6.113252 -1.365688 -0.909600 -0.350700 -0.222700 
-33.926819 6.809642 -0.995166 -0.312700 -0.840300 -0.442800 
-31.701923 -31.722345 -6.993539 0.925800 0.342100 -0.160800 
-29.741795 -34.373291 -6.687453 0.743700 0.668400 -0.009500 
-31.260033 -32.906029 -5.766629 0.664000 0.497200 0.558400 
9.042749 13.808292 9.553473 -0.047400 0.483900 0.873800 
12.061672 12.957085 9.875004 0.256700 0.487400 0.834600 
16.112320 3.813033 -10.774548 0.391000 0.054000 -0.918800 
-33.419182 0.877560 5.717081 -0.967900 -0.209800 -0.138200 
-35.407528 -13.829411 6.897564 -0.813200 0.565100 -0.138800 
-28.341759 -3.312177 -0.515014 -0.523200 -0.839100 0.148800 
-28.767597 -3.491047 1.639126 -0.526000 -0.641400 -0.558500 
8.641386 -22.426184 -5.561648 -0.993000 -0.079400 -0.087900 
8.999815 -25.119074 -5.690928 -0.914300 -0.314900 -0.254600 
31.456573 15.111612 -1.514156 -0.803700 -0.120300 -0.582700 
12.403694 -7.771550 -2.571392 0.069400 -0.593300 0.801900 
9.378042 -7.879869 -2.940926 -0.256500 -0.677900 0.688900 
25.367416 20.404860 3.928605 -0.280200 -0.833600 0.476100 
-35.140942 6.634471 -1.269676 0.468000 -0.599000 -0.649600 
1.356226 17.212679 -5.421665 -0.380000 0.776500 -0.502600 
-15.537537 -4.513943 -6.642593 0.599800 -0.717100 -0.354900 
-21.663326 7.162312 10.122482 0.081600 0.201500 0.976100 
-21.245338 10.951691 9.573683 0.146300 0.142400 0.978900 
-8.101254 14.711246 5.204665 0.020200 0.821100 0.570500 
-5.217803 15.213116 4.123635 -0.086700 0.924300 0.371700 
-32.638050 -0.624251 8.701559 -0.914500 -0.143200 0.378400 
-31.277580 8.959848 8.303284 -0.696300 0.472900 0.539800 
-30.054291 8.674679 9.716602 -0.424100 0.387600 0.818400 
-33.075161 -39.448280 -8.882942 -0.119500 -0.896600 -0.426300 
16.084671 12.419130 -7.871485 0.666400 0.464400 -0.583300 
-24.019276 -5.020356 -1.431652 -0.138800 -0.698600 0.701900 
2.175467 9.138615 10.451273 0.096800 0.155900 0.983000 
-0.025572 9.029594 10.881445 0.026600 0.112200 0.993300 
-28.642895 -37.639687 4.230748 0.381500 0.051200 -0.922900 
-26.715778 -10.841507 -3.756845 -0.064900 -0.270900 0.960400 
-16.700209 4.152067 -10.512936 0.226100 0.178200 -0.957600 
6.108299 12.173851 -9.953955 -0.140200 0.363400 -0.921000 
9.979225 -21.683172 2.318393 -0.408300 0.033600 -0.912200 
20.031731 23.337729 4.981528 0.080800 -0.238700 0.967700 
21.946976 22.234758 4.259438 -0.133500 -0.617400 0.775200 
-31.455597 -18.120173 8.832792 0.531000 -0.269400 0.803400 
-20.488220 -5.606667 1.153687 -0.116400 -0.862800 -0.491900 
39.524059 18.155542 0.488385 0.975800 0.179700 0.124200 
37.957848 21.669035 -1.607351 0.822700 0.222200 -0.523200 
38.647556 16.724333 -2.575573 0.704400 -0.019300 -0.709600 
12.592941 14.307804 8.676603 0.298700 0.537400 0.788700 
8.040203 -8.106434 5.121097 -0.729500 -0.657600 -0.188000 
9.412443 -8.522452 3.302648 -0.423000 -0.448700 -0.787200 
-36.350842 -38.189209 9.694706 -0.382100 -0.349900 0.855300 
-42.408909 -5.348167 -1.857963 -0.424000 -0.070400 -0.902900 
-3.012843 15.288918 -5.662983 -0.282100 0.856800 -0.431700 
-2.225233 15.993279 -4.250154 -0.343300 0.888100 -0.305500 
14.263515 -15.257169 -5.678034 0.968800 -0.168100 0.182000 
8.963034 -31.352571 -4.423230 -0.967100 0.039600 0.251300 
-26.928780 -14.150949 7.164186 0.512500 -0.853300 0.096000 
16.335060 -37.835930 -1.315672 0.438700 -0.029800 0.898100 
16.605850 -39.400406 -2.583323 0.397900 -0.746200 0.533600 
19.273979 38.452892 -5.763818 -0.140100 0.474000 -0.869300 
18.030445 36.710163 -6.045999 -0.103300 0.155500 -0.982400 
5.082464 28.673428 0.413391 -0.863300 0.487100 0.132000 
5.970427 30.317318 -0.712638 -0.831000 0.551500 -0.071800 
7.607895 32.420452 -1.025531 -0.739800 0.665400 -0.099200 
-30.952766 -18.613432 6.548725 0.848100 -0.494200 -0.190600 
-31.841877 -19.273588 5.559854 0.718000 -0.365900 -0.592000 
-31.877644 -20.476431 7.873610 0.897500 -0.317300 0.306100 
24.448318 29.983837 5.489418 -0.059200 0.307500 0.949700 
-32.325558 1.089025 -10.051802 -0.683500 -0.148700 -0.714600 
-31.483490 4.111356 -10.633839 -0.510500 0.203700 -0.835400 
-11.893402 11.489397 -7.700014 0.111300 0.353300 -0.928800 
36.707497 28.572735 -1.566261 0.946000 -0.007700 -0.324100 
35.704208 30.187458 -2.828243 0.716800 0.210800 -0.664700 
35.414940 27.685123 -4.892175 0.709300 0.175500 -0.682700 
18.549919 11.851332 3.740692 0.947800 0.131900 0.290200 
-0.927939 -5.905826 8.230705 -0.149700 -0.634500 0.758300 
-3.625130 -6.583554 6.298756 -0.302800 -0.783100 0.543200 
27.470997 21.441610 -5.689475 -0.030300 -0.422200 -0.906000 
-10.233002 1.514928 -9.014029 -0.083900 -0.228300 -0.969900 
-40.083324 10.171741 -1.320139 -0.645700 0.448100 -0.618300 
-40.399914 10.429153 0.487715 -0.805400 0.574100 0.147200 
19.620682 39.959133 2.725814 -0.035400 0.994300 0.100000 
16.633766 39.938824 1.029152 -0.273800 0.956500 0.100700 
17.259254 -6.218212 6.417818 0.905000 -0.403800 0.133900 
14.354858 37.428822 -4.255407 -0.468300 0.664000 -0.582800 
-30.968906 -8.520682 9.141378 -0.413200 -0.094100 0.905700 
-43.533001 1.871320 -1.628591 -0.855800 0.111800 -0.505000 
-30.464020 6.553670 10.163521 -0.362300 0.326400 0.873000 
-11.836643 13.761084 6.551673 0.183900 0.472800 0.861800 
35.853924 35.107136 -0.577497 0.680700 0.696500 -0.227000 
11.177084 -14.971061 -8.044136 -0.069000 -0.064100 -0.995500 
14.030777 -13.378459 -7.727843 0.611900 -0.297100 -0.733000 
18.756618 16.920042 -3.278125 0.808900 -0.098100 -0.579700 
20.108768 17.755232 -1.396244 0.889500 -0.332100 -0.313900 
-33.265923 -33.164467 -4.498212 0.135300 0.313900 0.939700 
-31.100506 -8.738566 -4.512792 -0.485200 -0.082300 0.870500 
17.242073 -6.317549 -4.865883 0.768000 -0.596900 0.231800 
15.217854 -7.409019 -3.464394 0.514800 -0.642900 0.567200 
2.262260 -4.464509 -9.534321 -0.069300 -0.523000 -0.849500 
-30.566879 9.996557 -8.488214 -0.603500 0.527300 -0.598100 
-14.738773 13.213739 -7.778244 0.242900 0.411100 -0.878600 
-32.944061 -0.346407 -5.671041 -0.584200 -0.272400 -0.764500 
32.482193 35.618687 4.686251 0.522400 -0.060500 0.850500 
-31.800552 -31.714121 7.497497 0.877400 0.354000 0.323600 
-32.780773 -31.392920 8.664581 0.510300 0.166800 0.843700 
19.332291 4.890849 -0.624618 0.981300 0.191500 0.019500 
-5.295192 4.912160 -10.747860 -0.256500 0.017800 -0.966400 
-2.703511 7.910859 -11.124767 -0.141600 0.197800 -0.969900 
9.119287 30.123821 4.768250 -0.478500 0.127600 0.868800 
7.890566 30.939381 3.278838 -0.670400 0.431200 0.603800 
2.209381 -8.513983 2.453223 0.209800 -0.965800 0.152400 
0.029640 -8.229434 4.167174 -0.012700 -0.959800 0.280300 
12.295998 -31.327662 -2.382820 0.196500 0.300900 0.933200 
12.401798 -35.813667 -1.890352 -0.214500 0.150700 0.965000 
8.095556 27.927517 4.201679 -0.274000 -0.042200 0.960800 
35.210476 27.447605 4.828799 0.738300 0.152800 0.656800 
18.398796 16.978788 3.022444 0.812000 -0.056400 0.580900 
8.754824 -19.800192 -4.552938 -0.930000 0.120300 0.347200 
-28.510403 -39.628838 5.733917 0.193900 -0.913600 -0.357400 
-20.880825 -10.174845 -6.246034 0.652900 -0.757300 -0.007100 
-23.234856 -11.746144 -6.450785 0.533600 -0.841300 -0.086300 
-21.966614 -11.046307 -5.579702 0.592800 -0.778800 0.205100 
12.348621 -38.637741 -6.025851 -0.371600 -0.611700 -0.698300 
13.358738 -38.114700 -6.845916 -0.106200 -0.369100 -0.923300 
14.086956 -11.667819 -8.381777 0.493500 -0.360000 -0.791700 
17.074097 -36.204987 -3.070452 0.695300 0.574500 0.431800 
-21.329010 15.034676 -7.039365 -0.083100 0.841300 -0.534100 
-40.987476 -23.171450 -1.413149 0.376600 -0.633900 -0.675500 
-42.209087 -24.325197 -0.124487 0.413300 -0.910600 0.001800 
11.310435 -32.017906 -2.321312 -0.294700 0.174000 0.939600 
-27.220119 -4.653865 -1.921054 -0.306800 -0.690100 0.655500 
-1.292042 1.907554 11.114450 -0.082800 -0.195300 0.977200 
6.757532 -6.754382 7.187786 -0.383300 -0.808900 0.445800 
-25.168312 4.950938 -10.934479 0.148700 0.938600 -0.311100 
36.750370 30.481983 -1.772311 0.636700 -0.226900 -0.736900 
-24.467663 -11.902248 8.400747 0.442900 -0.698000 0.562700 
13.400528 -33.870148 -6.907725 0.318400 0.166100 -0.933300 
14.797108 -35.629211 -6.696871 0.341300 0.207900 -0.916700 
16.947617 -35.630409 -5.078963 0.726600 0.637400 -0.256200 
-18.970079 -8.078012 -5.477894 0.657100 -0.734300 0.170100 
-8.992504 13.806826 6.097615 -0.023200 0.588100 0.808400 
-5.058753 13.981794 6.564232 -0.171000 0.774700 0.608700 
6.576094 -7.373624 4.536098 -0.186400 -0.976800 0.105300 
14.521477 -12.991833 6.961187 0.929300 -0.299100 0.216600 
14.434067 -15.130952 6.131906 0.952000 -0.306000 0.002700 
10.569715 -25.260790 3.096941 -0.340300 -0.204800 -0.917800 
9.030916 -25.218832 4.397099 -0.886400 -0.330500 -0.324000 
3.790464 26.008427 1.555770 -0.821200 0.499600 0.275700 
32.200993 36.706051 -4.674268 0.430000 0.373300 -0.822000 
15.334011 7.011764 -10.694687 0.386900 0.179400 -0.904400 
15.152882 -6.695392 2.285397 0.422500 -0.786800 -0.449900 
14.227745 -7.698942 2.766586 0.349500 -0.582900 -0.733500 
-34.416523 -33.269600 9.127390 -0.029800 0.158500 0.986900 
-11.647793 14.115107 -6.298214 0.146500 0.624800 -0.766900 
-7.603483 13.460596 -6.709928 0.023400 0.566700 -0.823600 
-34.848225 -22.595560 -5.056479 -0.037900 -0.038600 0.998500 
-28.048088 -10.348672 10.033337 -0.126300 -0.201800 0.971200 
-29.844181 -35.768280 4.411298 0.351300 0.383900 -0.853900 
-33.202297 -25.771070 6.284362 0.909500 0.029100 -0.414600 
21.498138 31.376827 -5.739299 -0.098300 -0.135000 -0.985900 
-7.799813 12.054628 -7.609476 -0.127600 0.507100 -0.852400 
19.259632 3.756217 7.827170 0.881600 0.047300 0.469600 
-40.315781 9.650341 1.512262 -0.544300 0.368100 0.753800 
-32.545013 -20.914446 -5.592329 0.674600 -0.227300 0.702300 
-36.338081 4.502311 -1.335220 0.754700 -0.232900 -0.613300 
-36.154598 2.010471 -0.053129 0.977700 -0.204600 -0.046400 
12.444378 35.187199 4.540962 -0.414300 0.520400 0.746700 
15.956558 36.825161 -5.539136 -0.313800 0.421900 -0.850600 
11.297893 -7.088422 9.942287 -0.183400 -0.203200 0.961800 
-23.292435 -9.604260 9.631556 0.314500 -0.408700 0.856700 
-38.439564 -38.150536 6.867246 -0.843000 -0.523200 -0.125100 
-37.150078 0.610331 1.489058 0.858200 -0.068500 0.508700 
-36.763878 0.055962 -0.682363 0.974700 0.131700 -0.180500 
39.765587 16.506285 0.140637 0.995200 -0.090800 0.035000 
-26.590206 -10.484921 3.657946 -0.038500 -0.266500 -0.963000 
-24.714520 -10.811568 3.749766 0.152200 -0.441500 -0.884200 
-38.224369 5.410409 2.022919 0.106900 -0.039000 0.993500 
17.381268 20.922731 4.987567 0.313600 -0.091000 0.945200 
15.977497 28.914280 5.092758 0.030500 -0.171700 0.984600 
22.202637 24.356121 5.295519 -0.214200 -0.170700 0.961700 
-3.305229 -8.190816 3.250926 -0.184100 -0.939300 0.289400 
44.355946 36.463924 -0.374837 -0.342200 0.897300 -0.278800 
12.579895 -9.369764 9.329485 -0.008900 -0.331200 0.943500 
11.103653 -12.881474 8.198748 -0.235800 -0.105400 0.966100 
7.635511 -1.487996 10.647030 -0.059500 -0.361600 0.930400 
33.527885 27.193436 -5.999933 0.271600 0.091900 -0.958000 
-32.248100 2.314651 1.617949 -0.960900 -0.232300 -0.150800 
15.435886 23.203520 5.081768 0.052800 0.083700 0.995100 
-33.772003 -27.917410 8.803261 0.433400 0.057000 0.899400 
10.682045 -30.708002 2.904358 -0.394500 0.127300 -0.910000 
-11.698053 16.115015 -3.140526 0.179200 0.954700 -0.237300 
-14.226563 16.708975 -2.636345 0.091300 0.986300 -0.137000 
-32.064812 -7.654285 -8.489304 -0.846300 -0.003900 -0.532600 
-20.771828 7.189386 -10.026989 0.105500 0.250100 -0.962400 
-24.453011 6.293128 -10.312347 0.054500 0.298100 -0.952900 
-47.604343 -22.726954 -1.410299 -0.634200 0.174100 -0.753300 
-47.064873 -24.011023 -1.864569 -0.290300 -0.309600 -0.905400 
-17.959089 -4.484417 9.468765 0.499800 -0.401100 0.767600 
-44.148567 -25.165991 0.443762 0.350400 -0.905100 0.240900 
-44.902454 -25.500940 -0.487101 0.207600 -0.941000 -0.267200 
42.238045 35.481045 0.389571 -0.184700 0.728800 0.659400 
41.188217 35.373806 -0.475950 -0.235700 0.944200 -0.229800 
-21.297707 -4.987117 0.808529 -0.242800 -0.872900 -0.423200 
-21.176476 -6.456996 2.026406 0.062000 -0.583800 -0.809500 
-7.802052 4.176763 9.987932 -0.297600 -0.025500 0.954300 
-32.637295 -21.068655 -8.619780 0.578400 -0.182300 -0.795100 
-33.182983 -24.319105 -8.399305 0.763300 -0.182800 -0.619600 
-47.445763 -25.252832 -0.674361 -0.438100 -0.855700 -0.275300 
-27.315990 -38.863754 5.636579 0.776800 -0.429000 -0.460900 
-41.517330 -11.592138 2.009665 -0.229500 0.109200 0.967100 
-22.221706 -10.642634 -4.646982 0.482800 -0.653900 0.582400 
30.919796 17.386103 2.091523 -0.475300 -0.573600 0.667100 
-29.722439 6.474574 -10.443806 -0.277800 0.313200 -0.908100 
-31.290821 6.838715 -9.511776 -0.601800 0.325500 -0.729200 
-37.184902 -38.279335 5.259368 -0.488900 -0.598500 -0.634600 
-1.964554 12.924894 8.645424 -0.236800 0.643600 0.727800 
-2.167933 14.929615 6.425405 -0.301700 0.779000 0.549600 
14.171677 -12.616633 7.723026 0.589800 -0.315200 0.743400 
-30.467628 -15.001649 5.124875 0.092000 -0.265100 -0.959800 
18.137581 -38.823120 -5.488803 0.744800 -0.310200 -0.590800 
16.056107 -38.194626 -6.787413 0.246300 -0.236700 -0.939800 
16.722679 -39.597092 -5.523484 0.187100 -0.870000 -0.456100 
-37.599659 -7.601150 1.942787 0.249000 0.110800 0.962100 
-37.673637 -1.547509 1.847986 0.579200 0.004900 0.815200 
-30.500061 -33.677048 6.656109 0.760000 0.649800 0.011600 
9.536764 -33.216934 3.590778 -0.888500 -0.045300 -0.456700 
39.804844 34.187199 -1.561861 -0.085400 0.497100 -0.863500 
8.869457 26.027538 -4.131143 -0.227300 0.017300 -0.973700 
16.657784 -7.095013 4.843618 0.800200 -0.519000 -0.300400 
9.141256 33.415722 3.037730 -0.738500 0.532900 0.413100 
7.543007 18.257593 -6.537525 -0.135900 0.509700 -0.849500 
2.045364 23.373480 1.056467 -0.850800 0.461600 0.251000 
15.083340 -39.868092 -2.912704 -0.023100 -0.962000 0.271800 
38.328949 32.349018 1.660779 0.384300 0.063800 0.921000 
32.238621 38.091206 -2.895139 0.526600 0.763600 -0.373500 
28.342274 39.569691 -3.505818 0.226900 0.858400 -0.460000 
-42.582653 3.655610 1.694481 -0.483600 0.117700 0.867300 
19.635509 4.252261 -6.789280 0.955700 0.080000 -0.283000 
19.248463 2.592561 -7.474081 0.895000 -0.053400 -0.442700 
11.075094 -24.738161 -7.110949 -0.216800 -0.260500 -0.940800 
17.311707 -36.684448 -5.763774 0.652800 0.376900 -0.657100 
13.421848 -29.118860 -4.395241 0.937500 0.104000 0.332000 
-8.166471 3.104249 -9.716019 -0.292800 -0.113600 -0.949400 
-32.840431 4.806480 1.831501 -0.993500 -0.105600 -0.042900 
-27.011215 -14.196105 -6.940413 0.488000 -0.872300 -0.029700 
-29.025475 -14.410874 -8.462934 0.452900 -0.544200 -0.706200 
-29.265568 -3.491496 -2.369154 -0.544500 -0.539100 0.642600 
-12.595564 15.192982 5.544884 0.157500 0.814900 0.557700 
-27.018192 7.718995 -10.166508 0.055100 0.159600 -0.985600 
-19.180519 -8.353318 7.537956 0.655300 -0.698200 0.288100 
-32.230106 -30.959433 -8.037090 0.779200 0.145300 -0.609700 
-31.683052 -33.885475 -8.848803 0.493400 0.522400 -0.695400 
18.060013 -0.472243 9.134911 0.754900 -0.149600 0.638500 
17.102661 -4.369393 8.760319 0.773900 -0.299900 0.557800 
-10.526050 -3.513693 -5.636069 -0.171600 -0.717800 -0.674700 
-11.150249 -5.069583 -3.140331 -0.193200 -0.879100 -0.435600 
11.320553 -11.236683 3.824555 -0.113300 -0.210400 -0.971000 
38.770634 34.361874 0.298453 -0.159100 0.803900 0.573100 
29.402630 39.877163 2.132140 0.249500 0.936500 0.246300 
39.133511 32.962276 1.216077 0.216700 0.173500 0.960700 
5.585451 9.132748 10.419514 -0.131600 0.256100 0.957600 
-37.705276 -33.789848 -8.529383 -0.643300 0.140400 -0.752600 
17.188164 -5.461316 -8.531235 0.766100 -0.392600 -0.508800 
3.420025 25.562000 -0.711332 -0.840600 0.531800 -0.102700 
1.917437 23.272768 -0.897260 -0.857800 0.447900 -0.252000 
-31.987110 8.781363 -7.746565 -0.747800 0.414200 -0.518800 
-32.607121 10.590155 -3.852236 -0.816200 0.315200 -0.484200 
-10.508650 -4.237746 4.915790 -0.214400 -0.793600 0.569300 
10.004580 10.612915 -11.106077 0.031000 0.116700 -0.992700 
22.289719 22.692701 -4.591802 -0.180400 -0.522800 -0.833200 
13.676098 -24.522501 -5.455309 0.964100 -0.265400 -0.000200 
11.083208 -35.271370 2.049887 -0.328700 0.039200 -0.943600 
-36.738018 6.202454 -2.038139 0.372000 -0.101100 -0.922700 
12.514820 -31.385710 -6.728890 0.424000 0.115400 -0.898300 
-44.555607 -24.559561 1.478720 0.158800 -0.634300 0.756600 
14.942425 -8.043754 -9.439323 0.505100 -0.313100 -0.804200 
-11.206344 16.083845 2.614285 0.180700 0.958400 0.220600 
9.599524 -11.134785 4.505726 -0.613600 -0.183700 -0.767900 
16.216225 -5.391088 -9.593002 0.545300 -0.258200 -0.797400 
16.035995 -8.094989 -8.276825 0.786100 -0.357500 -0.504200 
-31.795704 -20.292070 -7.687078 0.919100 -0.362400 -0.154500 
-0.328879 -7.224324 6.700169 -0.079000 -0.863400 0.498300 
13.941814 -6.716290 -1.535713 0.158300 -0.915400 0.370000 
-9.146381 9.323183 8.372713 -0.195300 0.397400 0.896600 
-4.485882 8.404984 -10.410328 -0.265400 0.245400 -0.932300 
36.135330 22.891462 -3.065214 0.606700 -0.076200 -0.791200 
-29.710476 -12.200851 9.179337 -0.083600 -0.133500 0.987500 
12.635952 10.595272 -10.803225 0.258000 0.279400 -0.924800 
-39.675877 -13.793952 3.024204 -0.164200 0.080900 0.983100 
-40.092339 -17.466217 2.871983 -0.218100 -0.091600 0.971600 
-32.410137 -5.191066 -8.908783 -0.775300 -0.107300 -0.622400 
-32.900318 -0.171816 -7.852999 -0.965400 -0.197600 -0.170000 
37.468189 30.044903 -0.425220 0.787900 -0.591200 -0.172100 
-32.490139 8.613035 -7.058010 -0.879300 0.328700 -0.344600 
11.928917 36.102459 3.154612 -0.558300 0.687300 0.464600 
24.915928 23.486048 6.031368 -0.179800 -0.202600 0.962600 
18.211430 -37.285278 4.906448 0.902000 0.374300 0.214900 
8.772554 -10.872584 5.574757 -0.952600 -0.157200 -0.260400 
-11.966612 10.783544 7.536173 0.099300 0.375800 0.921300 
-32.375168 -5.147761 8.883827 -0.787600 -0.094600 0.608900 
-11.907871 -1.417943 -7.521124 0.096300 -0.582400 -0.807100 
12.834488 35.824574 -4.358949 -0.521400 0.527100 -0.671000 
-1.883751 9.852070 -10.442354 -0.105500 0.343300 -0.933300 
-7.355619 -7.024014 2.486050 -0.354000 -0.892800 0.278600 
-29.615021 -34.731750 7.848676 0.648400 0.728300 0.221400 
8.845055 -24.668852 5.360832 -0.954200 -0.248500 0.166400 
9.592823 -10.714128 -8.275736 -0.611100 -0.218000 -0.760900 
24.574947 38.872753 -5.560727 0.097500 0.588700 -0.802400 
28.179874 38.302456 -4.829389 0.256200 0.563200 -0.785500 
24.878471 39.704861 -4.407127 0.092400 0.907100 -0.410500 
14.157318 -20.095083 5.935893 0.920900 0.311400 0.234300 
14.458508 -21.380671 6.489953 0.927000 0.070800 0.368300 
13.300777 -20.071283 7.040353 0.715000 0.234900 0.658400 
-38.411930 -10.836781 2.530718 0.044600 0.177900 0.983000 
-35.405499 -16.566799 5.283924 -0.451800 0.120800 -0.883900 
7.138905 31.471233 1.955571 -0.737500 0.573200 0.357100 
9.732693 -16.808662 7.659504 -0.524500 -0.046500 0.850100 
-31.461216 -19.039259 -5.712865 0.741400 -0.378800 0.553800 
-31.266048 -4.204028 -3.785034 -0.628600 -0.219600 0.746100 
19.755077 30.689571 5.191971 0.001300 -0.260900 0.965400 
18.472549 15.118469 3.403462 0.835100 0.056400 0.547200 
-5.694344 14.100088 -6.141675 -0.143800 0.777000 -0.612800 
4.802568 10.171803 -10.352266 -0.060100 0.314000 -0.947500 
30.385670 38.173992 4.125493 0.269300 0.716900 0.643100 
-24.082844 -10.159875 -3.472093 0.140700 -0.435700 0.889000 
-37.340504 -38.211441 -8.958115 -0.637500 -0.526600 -0.562400 
9.697845 -25.615858 -6.297648 -0.727900 -0.195400 -0.657200 
13.116318 -35.184387 1.928125 0.092000 0.343900 -0.934500 
6.252382 -5.996017 -8.157913 -0.156500 -0.776500 -0.610300 
15.173256 -11.267002 5.594896 0.852100 -0.390900 -0.347900 
13.722095 -10.548853 3.789107 0.383600 -0.325800 -0.864100 
14.441814 -3.059794 10.255329 0.178000 -0.196800 0.964100 
8.407732 -4.047585 9.934265 -0.117500 -0.330400 0.936500 
-28.941833 -35.806747 -8.841593 0.538700 0.561700 -0.627900 
-27.216301 -36.992966 -8.128595 0.845200 0.427800 -0.320300 
-42.761429 -12.090530 -1.681616 -0.524400 0.154000 -0.837400 
9.364840 12.066280 -10.855715 -0.031700 0.341300 -0.939400 
10.150396 33.011181 4.448830 -0.544500 0.414300 0.729300 
44.592506 34.415592 -0.323469 0.547200 -0.835900 -0.042500 
-44.013466 -24.296167 -1.442839 0.220300 -0.613000 -0.758800 
38.399628 13.776566 -1.210367 0.769100 -0.568500 -0.291900 
-32.135193 -22.332933 7.126562 0.964000 -0.264500 -0.026100 
-36.526077 -16.259102 6.593895 -0.899300 0.225300 -0.374900 
8.918463 -22.487001 3.405041 -0.860900 -0.096400 -0.499500 
-39.010021 5.869339 -2.979187 0.134100 0.116600 -0.984100 
-36.579887 -16.180782 7.427963 -0.937100 0.237700 0.255400 
-33.935165 -34.665787 9.551470 -0.029900 0.281900 0.959000 
-32.577984 -38.494087 -9.752983 -0.010300 -0.472300 -0.881400 
-28.398224 -38.415657 -9.665432 0.398600 -0.204400 -0.894000 
-30.604294 -37.610909 -10.016703 0.138000 -0.034100 -0.989800 
-28.711365 -39.581047 -8.655651 0.179000 -0.868800 -0.461600 
-42.129375 -23.263090 1.567831 0.279200 -0.565200 0.776200 
14.241856 -7.571514 10.001877 0.228100 -0.268300 0.935900 
16.364471 -4.194664 9.560018 0.518100 -0.183800 0.835300 
-35.496822 -37.434387 -10.074251 -0.157500 -0.110600 -0.981300 
-36.307602 -38.391945 -9.657544 -0.358700 -0.603600 -0.712000 
16.225220 -38.738541 1.660516 0.349300 -0.434800 -0.830000 
18.212948 -37.562210 3.258018 0.884300 0.157100 -0.439600 
-21.872936 -9.968884 -8.441454 0.505300 -0.663400 -0.551900 
15.356453 -7.049463 9.610909 0.553100 -0.291400 0.780400 
-36.382233 -36.012276 -9.695124 -0.442900 0.230200 -0.866500 
-37.193878 -36.256729 -9.107164 -0.617500 0.082000 -0.782200 
7.398542 -5.392293 8.916626 -0.230100 -0.587900 0.775500 
-31.067333 -35.703377 -9.791952 0.260900 0.313500 -0.913000 
-33.795162 -34.984673 -9.879770 -0.034500 0.264000 -0.963900 
-36.460373 -35.199997 4.489618 -0.455700 0.156900 -0.876200 
-25.107338 -12.356165 -4.825193 0.353200 -0.744300 0.566700 
14.197350 -33.149330 -5.867162 0.717300 0.399700 -0.570700 
25.213337 20.191973 -3.558314 -0.332300 -0.890700 -0.310100 
-39.099850 8.408234 -2.150789 -0.143800 0.237800 -0.960600 
-33.261383 -32.728096 -8.961210 0.195700 0.230200 -0.953200 
35.463264 31.252216 2.445168 0.535400 0.185300 0.823900 
33.305725 33.196705 3.497871 0.518500 0.069700 0.852200 
11.899544 -12.191778 -8.626883 -0.064700 -0.268800 -0.961000 
13.946976 -19.798090 4.293495 0.890500 0.177800 -0.418800 
-35.548733 -34.025352 -9.142099 -0.202100 0.205200 -0.957600 
-8.254142 -0.677552 -8.490511 -0.230700 -0.400200 -0.886900 
28.042164 34.483418 5.505320 0.753900 -0.649400 0.099900 
-27.945858 -11.645053 -9.960875 -0.001800 -0.305900 -0.952100 
-27.165371 -12.662254 -9.225283 0.274300 -0.600700 -0.750900 
-26.094376 -10.937485 -9.868834 0.210800 -0.331900 -0.919400 
-29.849915 -13.038364 -9.105165 -0.021700 -0.220600 -0.975100 
-30.738163 -33.700150 -7.759421 0.649600 0.607100 -0.457700 
3.421446 18.751040 -4.844574 -0.442000 0.577900 -0.686100 
9.628725 -16.154961 4.458794 -0.559400 0.157400 -0.813800 
-32.129665 -10.614804 -9.025103 -0.528900 0.057500 -0.846700 
32.613216 11.258190 0.567633 0.156300 -0.921400 0.355700 
32.141205 10.902363 -0.343145 0.063000 -0.993200 -0.098100 
13.613834 -18.267599 5.549953 0.986800 0.117200 0.111700 
-36.262512 -37.059456 4.231128 -0.348500 -0.183500 -0.919200 
44.803085 35.998783 0.591304 -0.122800 0.382800 0.915600 
-5.231591 2.868342 10.273611 -0.316800 0.015100 0.948400 
12.922596 -25.959711 3.505430 0.560700 -0.142500 -0.815600 
-30.107067 -9.716544 -9.886171 -0.233700 -0.106200 -0.966500 
25.226337 22.398153 -5.745054 -0.186300 -0.355800 -0.915800 
-29.325809 -5.108764 -10.084572 -0.120100 -0.069400 -0.990300 
-0.280384 17.837137 -2.444538 -0.545200 0.754700 -0.365100 
12.256714 -12.586892 8.432528 0.090200 -0.208200 0.973900 
-30.899681 -5.951295 -9.677601 -0.404700 -0.082000 -0.910700 
6.301157 14.513435 8.725023 -0.097500 0.540400 0.835700 
-17.139521 15.497505 -6.550256 0.049300 0.850200 -0.524200 
27.949142 34.327633 -5.470987 0.240700 -0.169400 -0.955700 
-32.179562 14.347002 -1.080186 -0.159300 0.892700 -0.421400 
-27.110165 -37.592239 -5.431342 0.893200 0.170400 0.416000 
-23.395416 -9.522212 -9.664915 0.321300 -0.417200 -0.850100 
