20.324753 36.738098 4.440772 -0.457200 0.580300 0.673900 
19.115845 35.771408 4.352896 -0.424900 0.567300 0.705300 
21.152283 37.787628 3.878668 -0.428100 0.757500 0.492800 
24.404774 38.834827 3.748389 -0.058300 0.980500 0.187400 
20.377502 -40.070389 4.587617 0.095400 -0.990000 0.103500 
22.517101 -39.597454 4.518064 0.732800 -0.680400 0.000500 
22.582819 -39.042702 3.668206 0.814000 -0.396300 -0.424500 
17.569412 -39.848335 4.567269 -0.294500 -0.953400 0.065800 
15.262736 -38.695866 4.312345 -0.604100 -0.796800 0.011100 
21.932472 -36.632938 4.103029 0.767700 0.640200 -0.026100 
22.547760 -37.535355 4.888639 0.884900 0.378900 0.270800 
20.302624 -34.921207 4.501794 0.726700 0.685800 0.037700 
14.010618 -34.239407 4.118417 -0.963900 -0.155000 -0.216500 
18.668501 -32.665379 4.792266 0.839000 0.478100 0.259900 
14.024902 -32.193825 3.544886 -0.750600 0.055800 -0.658400 
13.463287 -33.372856 4.372928 -0.967900 -0.202700 -0.148700 
18.051668 -31.491001 4.001006 0.941500 0.303400 -0.146700 
14.433277 -29.186085 3.464877 -0.644500 0.037400 -0.763700 
16.843624 -29.398518 3.273225 0.336600 0.187800 -0.922700 
15.901200 -29.141773 3.149736 0.099400 0.083800 -0.991500 
13.876970 -30.056759 4.075244 -0.897600 0.201400 -0.392100 
17.318256 -27.825817 3.857635 0.771700 -0.015400 -0.635800 
17.785580 -28.945602 4.306289 0.943500 0.104000 -0.314600 
15.157209 -25.627281 3.120383 -0.238500 -0.110400 -0.964800 
14.075846 -26.479664 4.178722 -0.913500 -0.160600 -0.373800 
17.193676 -26.458963 3.468807 0.585700 -0.115700 -0.802200 
16.071035 -25.484331 3.029938 0.046600 -0.191900 -0.980300 
14.286240 -24.976616 3.418968 -0.570800 -0.209100 -0.794000 
17.819000 -22.443966 3.249058 0.690400 -0.016500 -0.723200 
17.707073 -26.599899 4.175800 0.900000 -0.102000 -0.423700 
13.463820 -25.338642 4.252189 -0.855700 -0.278900 -0.435700 
18.488369 -23.922447 4.558338 0.911200 -0.255800 -0.322800 
13.209131 -23.378540 3.958851 -0.938300 -0.141900 -0.315400 
18.567585 -20.769108 4.336590 0.893200 0.231500 -0.385400 
13.330475 -20.606674 3.742230 -0.877900 0.190400 -0.439300 
17.345116 -19.625244 3.359303 0.588000 0.234800 -0.774000 
13.904541 -19.955795 3.431775 -0.626500 0.290000 -0.723400 
13.420570 -19.845963 4.140347 -0.884000 0.181900 -0.430600 
16.894180 -17.433882 3.672057 0.425100 0.201500 -0.882400 
17.931232 -19.212921 4.339608 0.889300 0.249400 -0.383300 
15.056522 -17.745316 3.467191 -0.280500 0.350500 -0.893600 
14.317490 -18.434723 3.578809 -0.506500 0.232500 -0.830200 
15.901936 -17.352081 3.522088 -0.012700 0.309500 -0.950800 
15.169960 -16.565870 4.037797 -0.262100 0.242400 -0.934100 
17.433960 -10.675233 3.418257 0.191300 -0.368100 -0.909900 
16.343575 -11.479066 3.723253 0.081700 -0.382600 -0.920300 
17.819496 -11.445252 3.920630 0.224700 -0.312800 -0.922800 
15.687518 -10.651628 3.383642 -0.145600 -0.311400 -0.939100 
14.050537 -10.868287 4.168577 -0.555600 -0.301700 -0.774800 
-19.250843 -10.647340 3.502165 0.178800 -0.468400 -0.865200 
-21.064806 -10.526483 3.308220 -0.064400 -0.346800 -0.935700 
-21.015907 -11.889298 3.928591 0.067700 -0.416500 -0.906600 
-22.315063 -10.959422 3.780369 -0.120900 -0.291500 -0.948900 
18.657089 -10.216920 3.781782 0.527900 -0.326900 -0.783800 
14.106102 -9.126304 3.323721 -0.340900 -0.465500 -0.816700 
13.316753 -9.219060 3.972960 -0.691800 -0.458800 -0.557500 
-17.446758 -10.875947 4.431448 0.445400 -0.631600 -0.634600 
-24.045830 -9.197679 3.378291 -0.252300 -0.254300 -0.933600 
-24.198645 -10.359014 3.835574 -0.141400 -0.210100 -0.967400 
-25.134499 -9.382684 3.830733 -0.300300 -0.125100 -0.945600 
12.644783 -8.743941 4.870070 -0.747700 -0.621800 -0.232900 
4.739792 -8.484803 4.828001 0.004400 -0.940500 0.339800 
1.494568 -7.745545 5.483153 -0.247400 -0.863400 0.439600 
-16.003857 -10.049340 4.911376 0.575700 -0.715200 -0.396200 
-14.568266 -8.407258 3.881827 0.514900 -0.679400 -0.522700 
-26.282806 -7.063782 3.989882 -0.551300 -0.123900 -0.825000 
20.628922 -7.514145 4.017851 0.682800 -0.599600 -0.417400 
11.737100 -8.086710 4.031347 -0.209400 -0.976500 -0.051300 
-0.811890 -6.923417 5.122893 -0.343900 -0.773200 0.532800 
-13.106085 -7.484319 4.489081 0.617500 -0.728600 -0.296300 
-25.581055 -6.659668 3.463500 -0.445100 -0.210700 -0.870300 
-2.893036 -5.864671 5.374770 -0.344200 -0.690500 0.636200 
-4.773788 -4.882997 5.422362 -0.313600 -0.689100 0.653200 
-10.797073 -5.750750 4.249719 0.445800 -0.881500 0.155600 
-26.777527 -4.615387 4.192565 -0.752600 -0.145500 -0.642200 
-8.451267 -4.805703 4.824325 0.184300 -0.880200 0.437200 
-27.561127 -3.252137 4.807495 -0.896100 -0.182000 -0.404900 
23.811108 -2.435006 5.232696 0.958500 -0.241000 0.151900 
24.014824 0.124297 4.810730 0.996500 -0.040600 0.073400 
-28.482391 2.449657 4.361756 -0.962600 -0.000800 -0.270800 
-28.277382 3.083838 4.134125 -0.962800 0.192800 -0.189200 
24.028467 4.293708 5.812165 0.984500 0.115200 0.132300 
23.471369 6.731841 4.742799 0.956900 0.269300 0.108400 
22.932365 8.972106 4.991395 0.965500 0.183600 0.184600 
22.582703 11.402499 4.164797 0.866300 0.218300 0.449300 
-26.260345 11.696593 3.847902 -0.671300 0.657000 0.343000 
-26.477707 10.700500 5.386599 -0.730600 0.583700 0.354400 
21.613647 12.224135 5.290468 0.801000 0.252800 0.542600 
0.064796 14.468429 4.407839 -0.178200 0.916500 0.358100 
-1.689774 14.596190 3.569155 0.001400 0.940200 0.340600 
-3.255585 13.936706 5.002200 0.068900 0.826800 0.558200 
-4.740921 14.528045 4.713931 0.102900 0.871200 0.480100 
21.984680 16.552650 4.308169 0.747700 -0.079200 0.659200 
3.530273 15.549331 4.653811 -0.372300 0.856800 0.356800 
-14.380550 15.345382 4.374667 -0.143400 0.963300 0.226900 
21.790649 17.578003 4.659915 0.553800 -0.069000 0.829800 
22.216064 19.515606 4.602024 0.428000 -0.222800 0.875900 
8.097054 19.304565 3.907253 -0.570100 0.375700 0.730600 
33.923538 19.418083 4.557565 0.076500 -0.566400 0.820600 
32.456696 19.432709 4.501148 -0.102100 -0.714100 0.692500 
31.562592 19.201111 3.927921 -0.155700 -0.828200 0.538300 
9.253784 19.566055 4.573062 -0.413000 0.390500 0.822700 
36.177658 20.536438 4.534961 0.311700 -0.401000 0.861400 
26.439682 20.998108 3.910800 -0.129200 -0.707900 0.694400 
24.153717 21.733076 4.680284 0.245200 -0.388600 0.888200 
11.138031 21.466873 4.574161 -0.277500 0.350000 0.894700 
8.678661 21.636383 3.715996 -0.473400 0.240900 0.847200 
39.065887 23.383667 4.436832 0.495200 -0.314800 0.809700 
37.517609 22.832764 5.014469 0.376300 -0.403100 0.834200 
11.552994 22.857588 4.189400 -0.193800 0.218600 0.956400 
39.678833 24.468399 4.408756 0.694100 -0.148700 0.704300 
14.560493 23.717796 4.605328 -0.275400 0.214700 0.937000 
13.552757 24.643074 4.090081 -0.196500 0.087300 0.976600 
11.098827 24.453236 3.988167 -0.170900 0.067200 0.983000 
39.445251 26.420849 4.760869 0.764500 0.161400 0.624100 
14.406136 25.884186 4.324757 -0.292900 -0.081500 0.952600 
12.491040 26.974104 4.181622 -0.286200 -0.017500 0.958000 
10.578909 26.827187 3.509221 -0.579900 0.313400 0.751900 
11.943741 27.972305 3.831486 -0.519300 0.223200 0.824900 
38.471069 28.675659 4.539556 0.586500 0.411700 0.697400 
13.545975 29.629498 4.610936 -0.544800 0.218700 0.809500 
37.683868 29.468994 4.535039 0.394100 0.422500 0.816200 
35.737000 30.269653 4.717900 0.207300 0.346400 0.914900 
35.349762 31.300232 4.526128 0.322500 0.036600 0.945800 
14.601692 31.854965 4.544073 -0.533400 0.393000 0.749000 
36.755814 34.567223 4.580832 0.530100 -0.063500 0.845500 
16.361286 33.674088 4.539526 -0.448800 0.495200 0.743800 
17.437984 34.591553 4.519079 -0.378600 0.538900 0.752400 
36.396912 36.287025 4.714148 0.419500 0.508500 0.751900 
32.322571 38.448944 3.789313 0.183100 0.833000 0.522100 
29.352722 38.576019 3.963141 0.135800 0.864300 0.484300 
23.365768 38.561584 4.300482 -0.210900 0.865400 0.454500 
22.409760 37.831421 4.698584 -0.334800 0.655600 0.676800 
21.996292 -39.723312 5.061639 0.417200 -0.879400 0.229300 
22.598709 -38.651760 5.440118 0.838800 -0.045000 0.542500 
17.418255 -39.589790 5.430566 -0.326500 -0.872500 0.363500 
14.387701 -37.753864 4.939432 -0.849900 -0.481900 0.213100 
-23.582203 -38.863693 4.511262 0.366900 -0.442400 -0.818300 
-24.746407 -37.875290 4.139657 0.101500 -0.088600 -0.990900 
-24.483162 -39.690765 5.217584 0.087300 -0.843700 -0.529700 
-22.499807 -39.097134 5.611063 0.744600 -0.456600 -0.486800 
-22.446579 -38.184105 5.396112 0.828500 0.008200 -0.559800 
-26.514805 -38.980133 4.507516 -0.047700 -0.567900 -0.821700 
-27.682167 -37.939400 4.144891 -0.093300 -0.220500 -0.970900 
-28.679565 -38.358780 4.428056 -0.147200 -0.503300 -0.851500 
-27.348404 -39.724808 5.449944 -0.150300 -0.877100 -0.456200 
-29.159973 -38.826965 5.140192 -0.201300 -0.811000 -0.549300 
-30.594238 -38.236145 4.732599 -0.132400 -0.660400 -0.739100 
-23.604370 -37.556320 4.398885 0.473900 0.165300 -0.864900 
-23.140564 -36.833866 5.196695 0.694200 0.529400 -0.487500 
-27.913473 -36.693485 4.062107 -0.006700 -0.026600 -0.999600 
-31.364662 -37.494720 4.313165 -0.316100 -0.274400 -0.908100 
-30.674206 -36.628159 4.090867 -0.150800 -0.032400 -0.988000 
-32.458984 -37.245010 5.071954 -0.674700 -0.084200 -0.733300 
20.962057 -35.650017 4.980593 0.698700 0.688100 0.195600 
21.443018 -36.594849 5.735122 0.667300 0.457000 0.588100 
14.037891 -34.378414 5.158251 -0.946800 -0.160200 0.279000 
-25.001396 -36.021942 4.395403 0.324200 0.376800 -0.867700 
-24.546307 -35.472565 5.159754 0.602300 0.639700 -0.477400 
-27.230530 -35.604630 4.185007 0.114500 0.158000 -0.980800 
-31.736305 -35.751072 4.523729 -0.486700 0.142800 -0.861800 
-25.914749 -34.155914 5.344110 0.568700 0.589200 -0.573800 
-27.027313 -34.603210 4.493586 0.289400 0.373200 -0.881500 
-28.900114 -34.181351 4.166895 0.021300 0.253200 -0.967200 
-30.873661 -34.728893 4.439802 -0.318200 0.244300 -0.916000 
19.350929 -33.935989 4.868666 0.770700 0.604100 0.202800 
-27.452152 -32.031921 5.427302 0.589000 0.253500 -0.767300 
-29.800602 -33.394135 4.585268 -0.134100 0.335100 -0.932600 
14.169266 -33.623627 5.634455 -0.756200 -0.029600 0.653700 
-28.319534 -32.324310 4.995966 0.202200 0.236900 -0.950300 
18.127693 -31.896011 4.839961 0.880000 0.337000 0.334700 
13.402578 -30.538227 4.514148 -0.955800 0.294000 -0.004300 
14.246971 -31.263298 5.752612 -0.729800 -0.033000 0.682900 
17.835936 -28.757612 5.105197 0.993400 0.017200 0.113500 
13.865758 -30.172766 4.919305 -0.907800 0.236400 0.346300 
14.106517 -28.249935 5.004420 -0.993600 -0.033900 0.107300 
17.950880 -25.554079 4.990813 0.970300 -0.228100 0.080800 
13.613744 -26.044895 5.051710 -0.946300 -0.322100 -0.028000 
13.271642 -25.036320 5.298659 -0.963500 -0.185000 0.193600 
18.814112 -22.755428 4.576122 0.933100 -0.109600 -0.342400 
13.070224 -21.258888 5.108117 -0.999200 0.035400 -0.015100 
18.935753 -21.819500 5.557690 0.992400 0.093100 0.080000 
18.536375 -20.526321 5.907216 0.918200 0.314200 0.241100 
17.998623 -18.718069 5.525359 0.993100 0.101000 0.059300 
13.259023 -17.583099 4.865026 -0.905200 0.194900 -0.377700 
17.636913 -16.184948 4.463052 0.675800 -0.021300 -0.736800 
18.064545 -16.278902 5.102918 0.861200 -0.265800 -0.433200 
14.055511 -16.627769 4.445706 -0.579900 0.177100 -0.795200 
13.395489 -16.844830 5.213658 -0.919100 0.132700 -0.370900 
16.642738 -15.645627 4.033926 0.176200 0.084400 -0.980700 
17.691353 -13.515368 4.227661 0.294300 -0.083200 -0.952100 
18.457581 -13.157388 4.601027 0.655600 -0.175200 -0.734500 
15.397461 -12.577653 4.056200 -0.150300 -0.139300 -0.978800 
14.092232 -12.398057 4.497717 -0.557600 -0.084500 -0.825800 
-22.429323 -13.601543 4.511834 0.212300 -0.572500 -0.791900 
-22.584368 -14.161012 5.091691 0.384000 -0.765700 -0.515900 
-25.068451 -13.600963 4.291091 -0.092200 -0.309000 -0.946600 
-24.722410 -14.831583 4.893467 0.132400 -0.413000 -0.901000 
-25.969131 -14.089276 4.709863 -0.153500 -0.294600 -0.943200 
18.933098 -12.431832 5.017088 0.828400 -0.268100 -0.491900 
-20.751303 -12.850464 4.547873 0.314100 -0.672000 -0.670600 
-19.497639 -12.680380 5.205938 0.447500 -0.815600 -0.366800 
-18.761065 -11.792045 4.458921 0.371700 -0.654600 -0.658300 
-26.439224 -12.445420 4.328955 -0.335700 -0.121600 -0.934100 
-27.177967 -13.432984 4.866137 -0.323500 -0.049400 -0.944900 
-27.780289 -12.773232 5.181211 -0.546200 0.107900 -0.830600 
13.382893 -11.412049 5.169485 -0.881400 -0.167200 -0.441800 
-17.549221 -11.585437 5.225515 0.518100 -0.773700 -0.364700 
-26.521530 -9.041474 4.296843 -0.495800 -0.041200 -0.867500 
-27.480835 -9.448670 5.104460 -0.811800 0.048400 -0.581900 
19.748428 -9.852052 4.742674 0.770100 -0.361300 -0.525700 
20.705643 -8.444612 5.208556 0.855700 -0.395600 -0.333500 
-14.663830 -9.020715 4.885710 0.615600 -0.738900 -0.273700 
21.130013 -7.888734 5.797987 0.897900 -0.406700 -0.168100 
12.106268 -8.369349 5.227562 -0.575200 -0.817300 -0.034900 
10.880768 -7.796586 4.995718 -0.225700 -0.955900 0.187900 
9.439880 -7.779710 4.946105 0.068500 -0.956700 0.283000 
-12.795066 -7.393429 5.581791 0.697400 -0.716000 -0.030100 
-11.676055 -6.345650 5.208928 0.656400 -0.752500 0.053600 
-4.323944 -5.652009 4.749785 -0.380400 -0.740700 0.553700 
22.651752 -4.748528 6.299422 0.890500 -0.418300 0.178600 
-5.188766 -4.083741 5.929840 -0.256200 -0.654700 0.711100 
-10.517632 -4.982382 6.625190 0.563600 -0.699800 0.438800 
-28.050203 -0.559403 5.100800 -0.966100 -0.215000 -0.143100 
-28.703182 3.320647 5.708191 -0.960200 0.220000 -0.172200 
-27.963903 6.657622 5.846314 -0.979100 0.183100 0.087800 
22.638657 9.500487 5.699953 0.894500 0.300900 0.330600 
-23.320801 12.787230 5.537111 -0.400900 0.820000 0.408500 
-21.612549 13.621001 5.299319 -0.270700 0.885800 0.376800 
20.692139 13.261691 6.155276 0.724900 0.273100 0.632300 
-20.268250 13.571898 6.102541 -0.277700 0.872000 0.403000 
1.810425 14.239440 5.766482 -0.287900 0.852500 0.436200 
-7.629150 14.581046 4.963625 0.098700 0.911000 0.400400 
-7.474213 13.776336 5.931612 0.212700 0.662400 0.718300 
-10.812622 14.685180 5.890048 0.183400 0.835900 0.517300 
-17.049866 14.561294 6.053408 -0.165200 0.925300 0.341400 
-18.515747 14.597632 5.359194 -0.241400 0.909900 0.337300 
21.007812 16.317337 5.168216 0.547300 0.119800 0.828300 
5.573303 15.878661 6.109896 -0.357800 0.774300 0.522000 
20.389221 19.609406 5.321750 0.309700 0.062100 0.948800 
8.406300 18.114685 5.101962 -0.425500 0.580600 0.694100 
7.800728 17.075134 5.760226 -0.344200 0.683800 0.643300 
11.616364 19.735291 5.526004 -0.250600 0.391800 0.885300 
33.867855 21.359573 5.566791 0.199700 -0.358000 0.912100 
29.765930 21.303223 5.652416 -0.184500 -0.451600 0.872900 
29.327850 20.655701 4.998050 -0.283100 -0.651100 0.704200 
22.886566 21.110149 4.863277 0.191400 -0.177800 0.965200 
20.857616 21.795864 5.049253 0.058100 0.049100 0.997100 
18.661407 21.138885 5.392993 0.100900 0.325500 0.940100 
13.697670 21.093872 5.373004 -0.143300 0.376800 0.915100 
35.078854 22.618271 5.648624 0.233100 -0.329700 0.914800 
27.661865 21.429489 4.813053 -0.315400 -0.556100 0.768900 
14.860100 22.320229 5.070187 -0.067700 0.231500 0.970500 
27.211517 23.487350 5.579044 -0.315100 -0.156600 0.936000 
25.803474 22.224983 4.722630 -0.076900 -0.407300 0.910000 
26.353012 23.572281 5.216803 -0.275700 -0.096600 0.956400 
24.801189 23.315376 5.023986 -0.002800 -0.121200 0.992600 
37.087189 23.534927 5.582279 0.316900 -0.345000 0.883400 
16.422827 24.721581 5.016809 -0.110700 0.023000 0.993600 
38.600143 26.300699 5.539212 0.499000 0.062000 0.864300 
37.689713 25.255318 5.837903 0.384800 -0.161400 0.908800 
15.317902 26.318100 4.709031 -0.279400 -0.103700 0.954600 
25.808908 27.612930 5.065359 -0.113200 -0.003000 0.993600 
38.825134 27.056061 5.076298 0.593900 0.340600 0.728800 
27.366920 27.854168 5.499069 -0.295900 0.202800 0.933400 
20.414118 27.640665 5.070924 0.013600 -0.117900 0.992900 
16.167061 27.740726 5.078681 -0.043400 -0.193600 0.980100 
37.611862 27.235458 5.722386 0.291900 0.277000 0.915400 
23.618500 28.940895 5.063245 0.027900 -0.149300 0.988400 
15.621655 29.706352 5.578362 -0.282000 -0.016400 0.959300 
13.564102 28.212372 4.776631 -0.388700 -0.067600 0.918900 
35.122677 28.434357 5.749761 0.107900 0.347900 0.931300 
27.915497 28.998596 5.282843 -0.085800 0.088700 0.992300 
20.911243 29.252991 5.501409 0.092300 -0.326000 0.940900 
18.137127 28.956055 5.370442 0.028700 -0.358900 0.932900 
33.740326 29.679657 5.192281 0.061400 0.302400 0.951200 
29.077362 29.581650 5.214589 0.038200 0.116900 0.992400 
27.872759 29.953583 5.410932 0.102700 -0.208900 0.972500 
25.943741 29.666458 5.411382 -0.044900 -0.289500 0.956100 
24.237270 30.184998 5.323720 -0.011400 -0.308800 0.951000 
23.152176 30.557968 5.586652 0.108800 -0.301900 0.947100 
33.749481 31.152670 4.994644 0.131900 0.031500 0.990800 
30.877022 31.199541 5.063032 0.123200 -0.088000 0.988500 
29.738770 32.219368 5.574281 0.221000 -0.266200 0.938200 
34.998245 32.040138 4.819192 0.288100 -0.154200 0.945100 
32.274921 33.476986 5.481187 0.403800 -0.356300 0.842600 
18.330841 32.372925 5.692449 -0.222600 0.289700 0.930900 
35.800522 35.476273 4.981989 0.205400 0.067800 0.976300 
34.336761 35.492767 5.096128 0.167900 0.157700 0.973100 
19.574463 33.778732 5.616262 -0.308400 0.335400 0.890100 
32.963196 34.683758 5.511847 0.337700 -0.151500 0.929000 
21.258545 35.378174 5.667242 -0.296000 0.328100 0.897000 
32.509277 35.455688 5.676519 0.274900 0.166700 0.946900 
34.378082 36.594604 4.612860 0.201300 0.563000 0.801500 
31.909241 37.418335 4.933966 0.196200 0.605200 0.771500 
22.606262 36.630798 5.597937 -0.268000 0.412500 0.870600 
29.491882 37.794189 4.803229 0.149000 0.644700 0.749700 
28.366821 38.347946 4.799933 0.195700 0.747200 0.635100 
24.772636 37.622803 5.627890 -0.113100 0.527700 0.841900 
26.259048 38.438614 5.026679 0.007800 0.805900 0.592000 
21.990227 -39.598434 5.489335 0.492900 -0.690700 0.529200 
22.247070 -38.609985 5.671022 0.559500 0.005500 0.828800 
20.900726 -38.547501 6.457666 0.434400 -0.185600 0.881300 
18.560898 -39.655014 5.932641 -0.092300 -0.838500 0.537000 
16.410461 -38.893120 5.830774 -0.450400 -0.712300 0.538300 
-23.422295 -39.731968 5.700463 0.284900 -0.820700 -0.495300 
-24.400690 -40.078094 6.524270 0.070300 -0.992900 -0.096000 
16.425781 -37.989899 6.486200 -0.391800 -0.361100 0.846200 
14.630979 -37.389301 5.710004 -0.709300 -0.331500 0.622000 
-22.080765 -38.362522 6.665897 0.998800 0.024800 -0.041300 
-29.304016 -39.694504 6.942803 -0.178500 -0.946100 -0.270000 
-32.287735 -38.540207 5.267831 -0.463900 -0.631200 -0.621500 
-31.450836 -39.597633 7.379739 -0.262600 -0.954600 -0.140800 
-33.435837 -37.679527 6.261224 -0.875800 -0.199200 -0.439600 
-22.326447 -37.588192 5.836618 0.893600 0.363800 -0.262700 
20.288612 -35.502533 5.776669 0.554600 0.570500 0.605800 
20.799385 -36.902618 6.282205 0.508500 0.297800 0.807900 
15.178291 -35.523964 6.503878 -0.533300 -0.111000 0.838600 
-23.383083 -36.147675 6.750559 0.740200 0.671500 -0.034200 
-32.840393 -35.367928 5.514215 -0.732200 0.179900 -0.656900 
18.325884 -35.238831 6.666450 0.291500 0.296000 0.909600 
-24.653793 -34.915997 6.564199 0.702000 0.711700 -0.025400 
-33.720818 -35.618778 6.773329 -0.959300 0.245200 -0.140100 
18.435328 -33.583031 5.747579 0.568200 0.427100 0.703400 
-25.669367 -33.876003 6.603040 0.777000 0.629400 0.004900 
-31.830032 -33.741016 5.354666 -0.548100 0.219900 -0.807000 
-32.553650 -33.734692 6.004564 -0.804300 0.201600 -0.559000 
16.651600 -33.634434 6.676673 0.166400 0.242100 0.955800 
15.608635 -33.087029 6.474375 -0.263200 0.133900 0.955400 
-26.952560 -32.096191 6.014521 0.822700 0.390000 -0.413500 
-26.384480 -32.775391 6.339388 0.844700 0.524500 -0.106300 
-30.427650 -32.384460 5.030268 -0.184900 0.160700 -0.969500 
17.616104 -31.747833 5.619051 0.708800 0.132400 0.692800 
16.895226 -31.500687 6.109400 0.501600 -0.078900 0.861500 
15.977625 -31.858370 6.440043 0.210700 -0.130400 0.968800 
15.332714 -31.607508 6.479443 -0.320900 -0.123000 0.939100 
-28.738579 -30.277054 5.181075 0.127500 0.076900 -0.988800 
-31.549747 -29.786699 5.463378 -0.624000 0.030100 -0.780800 
-31.972000 -29.971174 6.075603 -0.900800 0.137200 -0.412100 
17.589584 -29.667711 5.899394 0.836900 -0.060600 0.544000 
14.673626 -29.144564 6.462764 -0.683800 -0.111900 0.721000 
14.296515 -29.254845 5.808375 -0.912300 -0.019400 0.408900 
-28.378357 -28.621597 5.455493 0.566000 0.147600 -0.811000 
-27.918106 -28.852007 5.950343 0.852300 0.213800 -0.477300 
-30.882526 -28.140747 5.149850 -0.277500 0.008100 -0.960700 
-30.206001 -26.512997 5.102449 0.072300 0.004100 -0.997400 
16.989716 -26.489656 6.665493 0.534900 -0.115600 0.836900 
17.659809 -26.230833 5.918911 0.894900 -0.180500 0.408100 
13.944883 -26.350506 6.085151 -0.866100 -0.171100 0.469600 
-28.968025 -26.493477 5.432247 0.509700 0.027300 -0.859900 
-31.869591 -22.473299 6.139950 -0.967600 0.067900 -0.243300 
13.982649 -23.906586 6.675271 -0.687400 -0.217600 0.692800 
-28.622044 -24.960335 5.429237 0.603200 -0.111900 -0.789700 
18.699024 -23.560711 5.622395 0.943300 -0.272000 0.190100 
13.155880 -21.956026 5.946117 -0.972700 -0.067400 0.221800 
-28.324078 -26.142479 6.252040 0.930400 -0.011600 -0.366400 
-31.571499 -21.802784 5.527058 -0.737900 0.155000 -0.656800 
-28.174702 -21.947449 5.395802 0.504900 -0.177800 -0.844700 
-29.076580 -21.271439 5.064366 0.114800 -0.044700 -0.992400 
-27.556158 -23.020235 6.561703 0.914300 -0.288500 -0.284100 
-30.883327 -22.249691 5.155365 -0.286500 0.041500 -0.957200 
-29.810999 -20.797411 5.074770 -0.124200 0.040800 -0.991400 
-30.962143 -20.793173 5.425595 -0.518300 0.133800 -0.844600 
-31.607819 -20.961824 6.150509 -0.897200 0.132200 -0.421400 
-27.365791 -21.010742 5.692746 0.731600 -0.293800 -0.615100 
-27.495930 -18.563334 5.100120 0.330800 -0.184100 -0.925600 
-26.559090 -20.017599 6.404912 0.871800 -0.451200 -0.190700 
13.204985 -17.842985 6.048601 -0.995500 0.019700 0.092300 
-26.562254 -19.033558 5.522976 0.595100 -0.316500 -0.738700 
-30.888893 -16.992313 5.555058 -0.591000 0.275900 -0.758000 
-25.627033 -17.874895 6.150510 0.847400 -0.445200 -0.289300 
-29.871841 -16.361288 5.210445 -0.347200 0.128500 -0.928900 
18.113531 -16.622984 6.088052 0.941000 -0.325100 0.093400 
-25.339695 -16.674187 5.466706 0.546100 -0.414000 -0.728200 
-28.393084 -14.868366 5.063296 -0.189300 0.075400 -0.979000 
-26.307648 -16.105438 5.044060 0.099300 -0.132000 -0.986200 
-24.612705 -16.330896 6.372542 0.792400 -0.596800 -0.126400 
-31.598816 -16.838839 6.465337 -0.889000 0.248600 -0.384400 
-29.806793 -14.862602 5.500036 -0.528400 0.316500 -0.787700 
18.605053 -15.715140 5.557432 0.891400 -0.321300 -0.319600 
18.765236 -15.527575 6.383392 0.942200 -0.281500 0.181400 
-24.081293 -15.308072 5.412797 0.494700 -0.645800 -0.581500 
-23.739489 -15.384254 6.669009 0.593600 -0.804600 0.012500 
18.903849 -13.544753 6.033773 0.979800 -0.199700 -0.010000 
13.166012 -11.271132 6.023055 -0.986100 -0.136100 -0.095700 
-22.475437 -14.780698 6.657917 0.453400 -0.887300 -0.083600 
-29.009941 -13.786843 5.507410 -0.512600 0.373400 -0.773200 
-30.478889 -14.599725 6.458524 -0.778600 0.487000 -0.395600 
-20.369427 -13.550934 6.194963 0.479800 -0.840100 -0.253200 
-28.979445 -13.094474 6.066412 -0.734200 0.472200 -0.487800 
-28.054138 -12.033173 5.560453 -0.761900 0.159900 -0.627600 
19.525938 -11.949194 5.721403 0.891900 -0.374500 -0.253400 
-18.728947 -12.468428 6.734448 0.543600 -0.830500 0.121000 
-17.083126 -11.508036 6.013543 0.606200 -0.792500 -0.066800 
-28.615772 -11.497685 6.689058 -0.936700 0.314000 -0.154900 
20.558439 -9.749815 6.549884 0.931700 -0.363000 0.012000 
-15.941222 -10.416571 6.267861 0.660300 -0.750100 0.036100 
-27.968458 -9.585084 6.551634 -0.981900 0.182100 -0.051000 
12.873651 -9.426498 6.823500 -0.925400 -0.331600 0.183200 
-13.901997 -8.556271 5.950604 0.695200 -0.718300 -0.025100 
11.875358 -8.077467 6.683043 -0.650300 -0.703900 0.285400 
-27.637787 -4.699433 5.364379 -0.902900 -0.047600 -0.427100 
10.814539 -7.247045 7.010970 -0.326600 -0.886800 0.326800 
7.084167 -6.945985 7.583220 0.060700 -0.789500 0.610700 
6.416540 -7.705590 6.675658 0.110000 -0.874500 0.472400 
3.807541 -7.711030 6.670226 -0.113700 -0.869900 0.479900 
-27.903339 -4.018220 6.199096 -0.988500 -0.033600 -0.147100 
21.515823 -6.960847 6.419585 0.910100 -0.383200 0.157700 
9.779312 -6.795957 7.663650 -0.065700 -0.857200 0.510700 
0.700485 -6.900857 6.482345 -0.350200 -0.745600 0.567000 
-1.254829 -5.727601 6.244735 -0.397200 -0.735100 0.549400 
-12.301174 -6.819633 6.426047 0.753300 -0.626900 0.198600 
-3.073059 -4.638917 6.450164 -0.340300 -0.642200 0.686800 
-9.320490 -4.461192 6.001292 0.470500 -0.652400 0.594100 
-7.161385 -3.928956 5.693084 0.041700 -0.736000 0.675700 
-8.841551 -3.201768 6.918304 0.375500 -0.642900 0.667600 
23.615692 -1.148133 6.215881 0.945600 -0.154600 0.286100 
23.806969 -0.183473 6.397461 0.957900 -0.139900 0.250500 
-28.303135 -0.409301 6.644264 -0.937500 -0.347300 -0.020400 
-28.645805 0.669123 5.521820 -0.938000 -0.237300 -0.252600 
-28.991348 2.181079 6.925911 -0.998500 0.032700 0.043600 
-28.399366 4.750645 6.520509 -0.967000 0.249100 0.052600 
23.239994 6.140227 6.606172 0.902500 0.291800 0.316900 
23.584976 5.247947 6.800782 0.878800 0.302900 0.368600 
-27.577393 7.594237 6.624513 -0.887800 0.331000 0.319700 
-26.428032 9.605956 6.857790 -0.701600 0.521300 0.485800 
21.468445 10.815673 6.737307 0.782600 0.400100 0.476800 
-25.422180 11.357421 5.977297 -0.551000 0.704100 0.447800 
-4.631470 12.713531 6.197939 -0.034000 0.525000 0.850400 
-6.213837 12.344527 6.632601 0.171600 0.380300 0.908800 
-23.613831 11.455047 7.619204 -0.416000 0.716800 0.559600 
-0.393738 13.660369 5.830843 -0.165300 0.844000 0.510200 
-3.839783 13.534911 5.568820 0.010300 0.724100 0.689600 
-8.524597 14.401587 5.786425 0.215800 0.786900 0.578100 
19.559143 15.630919 6.201113 0.485100 0.296800 0.822600 
18.671906 16.889524 6.239017 0.303400 0.242200 0.921600 
16.515152 17.551023 6.330932 0.413400 0.910500 -0.011400 
15.642324 18.021360 6.396831 0.077100 0.326200 0.942100 
11.293945 17.049803 6.556399 -0.139300 0.439500 0.887400 
12.870815 18.189268 6.341144 -0.105200 0.378500 0.919600 
10.304710 17.978392 5.967807 -0.222000 0.483700 0.846600 
19.491074 19.277527 5.750820 0.291100 0.162800 0.942700 
18.283371 20.414825 5.764431 0.125000 0.303900 0.944400 
14.188965 20.429688 5.759403 -0.062800 0.377600 0.923800 
32.422424 21.579451 5.906590 0.034100 -0.311200 0.949700 
29.688641 23.311945 6.041571 -0.067300 -0.076700 0.994800 
28.726879 22.412107 5.816902 -0.249200 -0.279400 0.927200 
35.998894 24.272886 6.003871 0.102300 -0.141600 0.984600 
36.518387 26.209028 6.035661 0.101900 0.059500 0.993000 
28.297600 26.770796 6.030451 -0.219100 0.084500 0.972000 
34.425873 27.570166 5.995957 0.025300 0.147900 0.988700 
29.320023 28.182676 5.858518 -0.076400 0.283900 0.955800 
20.253212 30.093744 5.923913 0.041400 -0.256600 0.965600 
17.105518 29.708237 5.821420 -0.064900 -0.202900 0.977000 
27.293621 31.547272 6.035708 0.076400 -0.190500 0.978700 
24.902138 31.296486 5.851232 -0.059400 -0.268600 0.961400 
18.194733 31.064596 5.976285 -0.094500 0.052300 0.994100 
16.660843 31.340294 5.697492 -0.276900 0.219500 0.935500 
23.987076 32.407425 6.024406 -0.004300 -0.088600 0.996000 
31.052917 34.638889 6.023995 0.138100 -0.058300 0.988700 
24.315573 36.277199 6.034301 -0.071700 0.179300 0.981200 
27.069862 35.638786 6.016069 0.029500 0.080100 0.996300 
31.258259 36.326385 5.816595 0.158600 0.366000 0.917000 
28.427582 36.699341 5.694945 0.120300 0.367400 0.922200 
27.362930 37.349754 5.773623 0.137100 0.389200 0.910900 
-22.546265 -39.773438 6.710285 0.606300 -0.788000 -0.107400 
-22.247389 -39.323154 7.515528 0.883000 -0.434100 0.178200 
-27.715378 -40.072197 7.418382 -0.086500 -0.995500 0.037700 
20.537796 -37.696430 6.727518 0.436600 0.090000 0.895100 
19.835754 -38.680531 6.770483 0.111800 -0.393700 0.912400 
17.758652 -38.461388 6.776796 -0.168700 -0.400800 0.900400 
-33.433945 -38.527672 7.098897 -0.802700 -0.593800 -0.055500 
17.720133 -36.508446 6.962864 0.021600 0.025500 0.999400 
16.481010 -36.400780 6.838809 -0.247900 -0.123200 0.960900 
-22.477125 -37.541733 7.926813 0.860900 0.386500 0.330800 
-33.772263 -36.487514 7.438730 -0.968500 0.040500 0.245700 
-23.322601 -36.367126 7.879084 0.727100 0.641000 0.245500 
15.589021 -34.273552 6.782268 -0.316600 0.103600 0.942900 
-33.066330 -34.597210 6.999321 -0.935000 0.352900 0.034600 
-25.127182 -34.813889 7.924738 0.600800 0.724600 0.337500 
-26.464039 -33.108139 7.632899 0.790800 0.459800 0.404000 
-32.684162 -31.631334 6.699431 -0.958400 0.155000 -0.239600 
-26.874777 -31.951498 7.001643 0.931600 0.348500 0.103400 
16.527584 -30.399538 6.746448 0.331600 -0.160600 0.929600 
-27.394491 -29.652987 7.684772 0.892200 0.289900 0.346300 
-32.490875 -30.403238 7.555453 -0.936900 0.249500 0.244900 
15.159470 -28.174959 6.893325 -0.281300 -0.087300 0.955600 
-27.689514 -28.837677 6.650691 0.960800 0.265100 -0.080900 
-31.976528 -28.580112 7.030194 -0.997800 0.064100 0.016800 
16.039036 -25.587343 7.043079 0.100600 -0.107100 0.989100 
14.280671 -25.189789 6.656036 -0.549200 -0.115100 0.827700 
-28.178116 -26.727381 7.487598 0.957500 0.099700 0.270700 
15.244949 -24.704065 7.119537 -0.223200 -0.207300 0.952500 
17.642956 -25.533037 6.471736 0.711500 -0.269700 0.648900 
16.869766 -24.238024 7.175358 0.302200 -0.349300 0.886900 
-28.034504 -24.369833 6.929050 0.955900 -0.191200 0.223000 
-31.952374 -22.537214 7.076878 -0.999200 0.036500 -0.016600 
17.955994 -23.272341 6.923428 0.680400 -0.328700 0.654900 
18.664833 -22.364412 6.556591 0.876200 -0.095000 0.472500 
17.699005 -22.283640 7.665047 0.507000 -0.047100 0.860700 
13.425455 -22.253283 6.674858 -0.865600 -0.170000 0.471000 
14.251352 -22.044458 7.623852 -0.517800 -0.082300 0.851500 
-27.254215 -22.528061 7.397655 0.942200 -0.297300 0.154400 
18.316254 -21.418364 6.864232 0.763500 0.221700 0.606600 
13.364529 -19.545465 6.607476 -0.866300 -0.013300 0.499400 
-26.892992 -20.656916 7.061774 0.923100 -0.384500 -0.002600 
17.644630 -19.917070 6.927258 0.777200 0.147300 0.611700 
14.162247 -20.036928 7.369187 -0.545900 0.009600 0.837800 
-31.737852 -17.277199 6.985949 -0.994200 0.107600 0.002500 
16.953827 -17.658266 7.662129 0.508300 -0.105800 0.854600 
14.963564 -19.681423 7.747804 -0.298600 -0.012800 0.954300 
-25.714794 -18.334076 6.880380 0.896200 -0.439300 -0.061400 
17.687187 -17.375053 6.951993 0.871800 -0.187400 0.452600 
13.805847 -17.428286 7.288510 -0.688700 -0.037800 0.724100 
17.729553 -16.592661 7.463117 0.679500 -0.267900 0.683000 
13.339731 -12.860772 6.710619 -0.927900 -0.049700 0.369300 
-31.423269 -16.197765 7.289545 -0.908000 0.406700 0.099900 
18.687164 -13.696549 7.187551 0.856200 -0.272000 0.439200 
-30.461811 -14.270379 7.201335 -0.806500 0.588600 0.055400 
13.655823 -12.826782 7.225962 -0.763500 -0.117400 0.635000 
-22.073904 -14.507397 7.388108 0.472900 -0.824300 0.311100 
-20.342083 -13.608041 6.652051 0.516800 -0.851900 0.084700 
-29.235146 -12.979804 7.181856 -0.827100 0.558800 0.060000 
19.735710 -11.532117 7.282118 0.851200 -0.395900 0.344600 
-17.198568 -11.450862 6.677338 0.598200 -0.755900 0.265800 
-28.368864 -11.156913 7.501463 -0.887600 0.301300 0.348400 
-17.094566 -10.532916 8.373915 0.511600 -0.667600 0.540900 
19.882248 -9.495667 8.351255 0.728400 -0.368800 0.577400 
-15.042908 -9.399792 7.587938 0.616200 -0.721700 0.315100 
12.972214 -8.445454 7.982396 -0.724200 -0.384500 0.572400 
-13.755202 -8.221134 7.315814 0.714400 -0.648400 0.262900 
-27.927073 -6.420602 6.958228 -0.994700 -0.027800 0.098800 
11.842707 -7.123548 7.936172 -0.427000 -0.646500 0.632200 
21.372772 -6.132509 7.894225 0.854600 -0.327600 0.402800 
-0.555298 -5.793824 6.810256 -0.437600 -0.650000 0.621200 
-11.976112 -6.032739 7.133948 0.693100 -0.591800 0.411500 
22.727341 -3.747911 7.377868 0.871600 -0.287100 0.397200 
-0.790436 -4.161012 7.892272 -0.341400 -0.515900 0.785600 
-2.686005 -3.552354 7.633941 -0.335000 -0.547800 0.766600 
-5.068176 -3.283479 6.673919 -0.214100 -0.621100 0.753900 
-10.347473 -2.976121 8.492972 0.535200 -0.493500 0.685500 
-27.967773 -1.555791 7.573059 -0.983000 -0.135300 0.123800 
-7.384909 -2.191911 7.443443 0.101000 -0.585700 0.804200 
22.976990 1.983580 8.548157 0.798900 -0.035000 0.600400 
-28.762739 0.699887 7.189713 -0.942300 -0.305700 0.136500 
23.744247 2.467467 7.327637 0.940700 -0.065100 0.332800 
23.625977 3.218825 7.695832 0.880000 0.078300 0.468500 
-28.573505 3.678588 7.560853 -0.933900 0.271100 0.232900 
22.575836 7.657576 7.590700 0.853800 0.250700 0.456100 
21.540421 9.437255 7.909975 0.725400 0.437300 0.531600 
20.592194 9.806426 8.612337 0.613900 0.386300 0.688300 
-4.558006 10.078368 7.563295 -0.187600 0.444800 0.875800 
-3.246643 12.707946 6.593264 -0.171000 0.627900 0.759300 
-7.171204 10.117858 7.433259 0.103800 0.364600 0.925300 
20.375641 11.618224 7.786623 0.691500 0.408100 0.596000 
-2.577393 11.624175 7.508272 -0.265700 0.551800 0.790500 
-8.387024 13.148345 6.744844 0.237600 0.492200 0.837400 
19.585510 13.165160 7.385317 0.545300 0.456700 0.702800 
-1.431335 12.638610 6.842287 -0.154800 0.710300 0.686600 
0.759827 13.235412 6.994387 -0.233300 0.752900 0.615300 
0.275436 11.514098 8.492846 -0.209200 0.576600 0.789800 
-10.181213 12.189818 7.717989 0.263700 0.372800 0.889600 
-20.571045 12.602874 7.863161 -0.305800 0.789400 0.532200 
2.636047 12.775146 7.985720 -0.257900 0.664700 0.701100 
3.369156 14.360351 6.703463 -0.335900 0.756500 0.561100 
-11.120575 13.969665 6.837069 0.248600 0.633500 0.732700 
-16.156069 14.574706 6.612521 -0.108800 0.894900 0.432800 
18.358185 14.700927 7.207278 0.353500 0.422100 0.834800 
5.731842 14.881408 7.392581 -0.232700 0.702900 0.672100 
5.483891 13.776366 8.387026 -0.228200 0.623400 0.747800 
-12.299591 14.500487 6.817935 0.138400 0.781400 0.608400 
-17.983215 13.525817 7.879702 -0.152900 0.796500 0.585000 
15.543701 15.901855 7.432498 0.183900 0.482300 0.856400 
11.159920 15.068389 7.526919 -0.154900 0.570800 0.806300 
12.380402 15.933043 7.379794 -0.175500 0.522900 0.834100 
8.313171 16.061522 6.876437 -0.141200 0.582000 0.800800 
7.996765 15.129394 7.426882 -0.040900 0.592800 0.804300 
14.427002 16.219175 7.383304 0.026000 0.522500 0.852200 
-22.976326 -39.585594 8.455766 0.436000 -0.714100 0.547700 
-24.321243 -39.885597 8.448922 0.122300 -0.889100 0.441100 
-30.078690 -39.695259 7.988976 -0.070400 -0.995400 0.064400 
-32.512634 -39.008026 8.031976 -0.591800 -0.768000 0.244800 
-33.516525 -37.955330 7.717981 -0.883500 -0.275400 0.378900 
-32.992218 -37.085831 8.555994 -0.692200 0.000300 0.721700 
-24.480171 -35.680557 8.716272 0.530200 0.646000 0.549100 
-33.061192 -35.041378 7.958170 -0.890900 0.215000 0.400200 
-26.009567 -34.132965 7.976191 0.630500 0.588900 0.505500 
-32.578014 -32.602203 8.113321 -0.859000 0.183400 0.477900 
-27.208183 -32.035156 7.957499 0.795300 0.239800 0.556800 
-28.041122 -30.392214 8.520915 0.564200 0.102700 0.819200 
-31.912281 -29.824774 8.033412 -0.854100 0.165800 0.493000 
-28.169655 -28.514809 8.011775 0.826600 0.241900 0.508100 
-29.075035 -25.404423 8.623901 0.551200 -0.046100 0.833100 
-31.862900 -21.450388 7.971066 -0.965000 0.036300 0.259700 
-28.303593 -24.367109 7.943966 0.847400 -0.216800 0.484600 
-29.067005 -23.930386 8.845680 0.385800 -0.148300 0.910600 
16.922832 -23.542482 7.613934 0.306400 -0.380700 0.872400 
15.620325 -22.230684 8.012107 -0.067000 -0.068500 0.995400 
15.475414 -23.312731 7.754189 -0.171800 -0.310400 0.934900 
-27.294098 -21.153799 8.102657 0.836000 -0.269100 0.478200 
16.914177 -20.903460 7.679089 0.388700 0.101000 0.915800 
15.951836 -19.257666 7.884091 0.058100 -0.012100 0.998200 
-26.301865 -19.298769 7.927990 0.820400 -0.430700 0.376000 
-31.587326 -19.501894 8.046018 -0.828600 0.145800 0.540400 
14.650084 -17.369860 7.848423 -0.341300 -0.054000 0.938400 
-25.288479 -17.555536 7.527143 0.879000 -0.439500 0.184700 
-31.529465 -16.705870 7.658154 -0.899600 0.217000 0.379000 
16.297884 -16.685640 8.020251 0.138900 -0.079200 0.987100 
-24.997833 -16.338558 8.193830 0.760700 -0.494700 0.420200 
-26.183626 -18.147232 8.623712 0.612000 -0.318200 0.724000 
-30.806976 -17.054277 8.593427 -0.586800 0.099500 0.803600 
14.263548 -13.071805 7.688360 -0.509800 -0.140800 0.848700 
18.057022 -13.996385 7.732030 0.505500 -0.213900 0.835800 
15.608063 -13.785562 8.099027 -0.183900 -0.124800 0.975000 
-23.894148 -15.123774 8.021610 0.551600 -0.674900 0.490200 
-30.470377 -15.117921 8.467092 -0.657700 0.372000 0.655000 
16.954765 -13.266839 8.193068 0.172900 -0.292600 0.940500 
-21.740761 -13.872121 7.963888 0.432100 -0.735200 0.522200 
-22.095985 -13.579347 8.540777 0.316900 -0.609300 0.726800 
-24.396303 -14.720149 8.652331 0.360600 -0.376600 0.853300 
-29.903547 -14.093272 7.979312 -0.669200 0.591700 0.449500 
18.946152 -12.293061 7.709471 0.616000 -0.336500 0.712200 
15.412132 -12.277162 8.445517 -0.269700 -0.262900 0.926400 
-28.886948 -12.973664 8.103453 -0.690700 0.503300 0.519200 
17.933731 -11.529786 8.619444 0.332500 -0.323300 0.885900 
-19.972338 -12.585202 8.440228 0.447400 -0.675200 0.586400 
-18.558228 -11.837045 7.878031 0.518200 -0.733200 0.440300 
18.934174 -10.578034 8.563444 0.472100 -0.373400 0.798500 
13.648798 -8.872350 8.516886 -0.602900 -0.254200 0.756200 
-27.518097 -9.063596 8.008894 -0.851500 0.120400 0.510400 
-16.105743 -9.677274 8.500761 0.510600 -0.623800 0.591700 
20.707794 -7.861665 8.228209 0.838200 -0.309800 0.448700 
-14.827759 -8.387525 8.540318 0.517600 -0.514200 0.683800 
-13.801852 -7.574817 8.331264 0.623900 -0.505300 0.596200 
-27.631767 -7.293581 8.005065 -0.890100 -0.120900 0.439300 
12.046814 -6.206163 8.790389 -0.286300 -0.546100 0.787200 
3.772667 -6.906099 7.770995 -0.122600 -0.713500 0.689800 
3.390213 -6.118959 8.327712 -0.180200 -0.560900 0.808000 
-27.759575 -5.419252 8.439269 -0.906600 -0.089900 0.412300 
0.355904 -5.290239 7.824370 -0.367900 -0.542800 0.755000 
-12.805127 -5.189058 8.866168 0.592200 -0.489900 0.639700 
21.727905 -4.221071 8.678832 0.750800 -0.289500 0.593700 
-1.511902 -2.610170 8.638092 -0.294100 -0.432500 0.852300 
22.771942 -1.224000 8.385559 0.856300 -0.148300 0.494700 
-3.016602 -1.579988 8.546173 -0.291300 -0.409000 0.864800 
-8.971870 -1.983301 8.169609 0.431200 -0.465700 0.772800 
-5.327728 -1.731141 7.810180 -0.117600 -0.530400 0.839500 
-4.965515 0.018263 8.788406 -0.141800 -0.326600 0.934400 
-7.103508 0.507308 8.805958 0.024200 -0.304900 0.952100 
-8.585636 -0.393831 8.620659 0.333200 -0.352200 0.874600 
-28.470276 1.091246 8.637512 -0.913800 -0.137500 0.382200 
-28.527618 2.734046 8.536224 -0.885600 0.188500 0.424300 
22.822327 5.142455 7.962159 0.804600 0.242900 0.541800 
-27.442451 5.970274 8.466554 -0.804000 0.332200 0.493100 
21.941956 6.356688 8.682862 0.708600 0.171000 0.684600 
-26.340363 8.048522 8.483155 -0.691800 0.455200 0.560500 
-3.882751 8.307555 8.662416 -0.344100 0.436900 0.831100 
-9.569031 7.919798 8.573792 0.133300 0.307700 0.942100 
-10.703049 9.194518 8.531145 0.260200 0.184400 0.947800 
-1.645264 10.530242 8.562563 -0.282800 0.471400 0.835300 
-24.095001 10.344604 8.432253 -0.455200 0.600800 0.657200 
-21.428703 10.614805 9.538149 -0.250100 0.495300 0.831900 
-13.152161 13.447875 7.972842 0.151200 0.599700 0.785800 
-20.755676 11.690184 8.841372 -0.271300 0.665800 0.695100 
17.375732 13.615355 8.330568 0.350100 0.545200 0.761700 
-18.703094 12.624755 8.706423 -0.145400 0.669200 0.728700 
14.081177 14.473144 8.726686 0.060800 0.548100 0.834200 
12.691416 14.615722 8.557558 -0.155700 0.562900 0.811700 
10.925972 13.860229 8.575930 -0.110500 0.548800 0.828600 
6.503709 13.705382 8.634706 -0.069600 0.570800 0.818100 
-22.463413 -38.652496 8.544333 0.775000 -0.039000 0.630800 
-24.099289 -38.547527 9.457707 0.401300 -0.252700 0.880400 
-25.170364 -38.855484 9.654443 0.134300 -0.484100 0.864600 
-27.497025 -38.998978 9.600884 -0.011300 -0.574800 0.818200 
-28.411507 -39.628937 8.760247 -0.057300 -0.881600 0.468400 
-32.113129 -38.903267 8.883386 -0.560600 -0.565800 0.604600 
-31.220385 -39.571182 8.534890 -0.225200 -0.896100 0.382400 
-22.968241 -38.094471 8.670303 0.580300 0.261500 0.771200 
-31.439423 -38.429657 9.626458 -0.354100 -0.346300 0.868700 
-23.657471 -36.692719 8.877741 0.613300 0.417100 0.670700 
-31.483368 -37.179379 9.553682 -0.402900 0.143800 0.903900 
-25.939339 -35.973938 9.620584 0.282000 0.395400 0.874100 
-30.516151 -35.626549 9.364897 -0.263300 0.282600 0.922400 
-31.647453 -35.653183 9.057570 -0.333800 0.157200 0.929400 
-26.583618 -34.496811 8.778833 0.405800 0.516100 0.754300 
-29.528542 -35.429489 9.592564 -0.118700 0.294500 0.948200 
-32.428047 -33.269028 8.568125 -0.646100 0.176200 0.742600 
-28.341545 -34.500999 9.232447 0.097300 0.317500 0.943200 
-29.342634 -33.536736 9.043506 0.016100 0.147300 0.989000 
-31.808319 -32.869061 8.810556 -0.409100 0.124000 0.904000 
-27.856808 -32.145470 8.642890 0.432900 0.186700 0.881900 
-30.866959 -31.792513 8.969588 -0.151800 0.039800 0.987600 
-31.585007 -30.202009 8.631984 -0.628900 0.074100 0.773900 
-28.693174 -28.657080 8.782699 0.488200 0.235900 0.840200 
-30.081974 -28.877672 8.979379 0.074100 0.029800 0.996800 
-29.071278 -27.943521 8.676156 0.415900 0.117500 0.901800 
-30.844994 -21.702375 8.965845 -0.264100 0.023700 0.964200 
-31.529984 -20.603575 8.605717 -0.697600 0.130300 0.704600 
-30.001137 -24.625406 8.973993 0.118400 -0.037500 0.992200 
-28.310202 -23.500145 8.532501 0.640800 -0.287400 0.711800 
-29.614120 -20.904375 9.061562 0.014200 -0.007600 0.999800 
-27.694313 -20.994228 8.631945 0.500300 -0.197600 0.843000 
-27.198593 -19.069517 8.868327 0.383200 -0.214100 0.898500 
-30.743561 -19.436468 8.745091 -0.418700 0.091100 0.903500 
-26.394367 -15.944416 9.022696 0.129600 -0.070900 0.989000 
-29.678360 -15.895584 8.972020 -0.233100 0.103400 0.966900 
-25.638096 -16.626362 8.693692 0.477600 -0.232100 0.847300 
-26.902283 -13.092440 9.014428 -0.122800 0.033000 0.991900 
-29.653736 -14.512307 8.623686 -0.438200 0.395400 0.807200 
-24.486713 -13.431978 9.031574 0.030700 -0.175400 0.984000 
-22.768372 -12.695742 9.208403 0.075200 -0.419600 0.904600 
-27.925606 -12.716241 8.725210 -0.429000 0.235600 0.872000 
16.770370 -12.561158 8.592222 0.093400 -0.339200 0.936100 
-19.350557 -11.645479 8.781279 0.422800 -0.588300 0.689300 
-20.916641 -11.101748 9.839426 0.175800 -0.365500 0.914000 
-24.740204 -11.968172 9.236074 -0.148300 -0.159200 0.976000 
-26.424133 -10.778749 9.023603 -0.276500 0.025300 0.960700 
17.752930 -9.687258 9.248747 0.119400 -0.370900 0.920900 
15.922256 -9.818941 9.190260 -0.134000 -0.293100 0.946600 
-19.093025 -10.525408 9.576406 0.336500 -0.440100 0.832500 
-27.399323 -10.146832 8.545523 -0.633300 0.159700 0.757200 
14.433708 -10.140565 8.737257 -0.434900 -0.249400 0.865300 
-17.766869 -9.458197 9.537588 0.332900 -0.392800 0.857200 
-25.559021 -8.802114 9.358580 -0.386600 -0.100200 0.916800 
18.988724 -8.557329 9.544517 0.353500 -0.364500 0.861500 
-26.552948 -8.601870 8.862151 -0.565100 -0.047700 0.823600 
19.722885 -7.618184 9.543548 0.532800 -0.251900 0.807800 
15.126648 -8.115755 9.595000 -0.302200 -0.250100 0.919800 
-15.429745 -6.857652 9.639571 0.350800 -0.358300 0.865200 
13.190609 -6.981946 8.985198 -0.468900 -0.366700 0.803500 
-25.716553 -6.560396 9.759498 -0.303500 -0.146300 0.941500 
-26.914413 -5.330965 9.484710 -0.582900 -0.122500 0.803200 
21.028320 -5.156648 8.970000 0.734600 -0.291700 0.612600 
-13.970749 -5.354211 9.641845 0.414600 -0.371000 0.830900 
12.477333 -4.824632 9.738639 -0.124100 -0.367500 0.921700 
11.035248 -5.737886 8.970153 -0.076600 -0.653000 0.753400 
8.287109 -5.692262 8.972655 -0.037200 -0.674200 0.737600 
6.326538 -5.418092 8.978454 -0.075800 -0.564200 0.822100 
1.607086 -4.289674 8.866088 -0.271500 -0.442300 0.854700 
-12.704414 -4.181319 9.563918 0.463900 -0.389900 0.795500 
-27.550308 -1.706705 8.971588 -0.858000 -0.148000 0.491900 
1.079453 -2.164537 9.702698 -0.232800 -0.324100 0.916900 
-11.595963 -2.543832 9.500587 0.455600 -0.311300 0.834000 
21.983948 -1.337103 9.424927 0.669400 -0.156300 0.726200 
-3.104797 -0.891420 8.804840 -0.239400 -0.352700 0.904600 
-10.309357 -0.566266 9.602783 0.425400 -0.256900 0.867700 
-9.082596 1.566210 9.524315 0.354400 -0.130300 0.925900 
21.837769 0.451720 9.678223 0.678100 -0.037900 0.734000 
-2.358154 1.358137 9.705627 -0.219000 -0.218100 0.951000 
-7.886772 1.496466 9.115734 0.186900 -0.149200 0.971000 
-4.841858 2.139510 9.176048 -0.189700 -0.088600 0.977800 
-6.532292 1.880484 9.020199 -0.009800 -0.067800 0.997600 
21.623413 2.993895 9.948487 0.598900 0.120800 0.791700 
-4.355133 3.791716 9.374383 -0.462200 0.031100 0.886200 
22.424622 4.289641 8.911195 0.711900 0.197000 0.674000 
-8.823959 4.662764 9.389176 0.305600 0.071900 0.949400 
-4.424347 5.580060 9.191476 -0.238300 0.100400 0.965900 
-7.660843 6.463110 9.007426 0.043600 0.176600 0.983300 
21.061035 5.228026 9.661805 0.578700 0.163200 0.799000 
-10.388290 5.394652 9.677415 0.139500 0.263300 0.954600 
20.662170 7.149352 9.715760 0.522300 0.202600 0.828300 
-4.636314 7.420729 8.845803 -0.173200 0.307600 0.935600 
-3.254028 5.808394 9.688203 -0.349900 0.154300 0.923900 
-11.708527 6.157195 9.531922 0.142300 0.279000 0.949700 
-12.639954 6.730742 9.578767 0.131000 0.278300 0.951500 
-25.261665 8.058561 9.558015 -0.449300 0.401800 0.797900 
-2.136078 8.041990 9.639543 -0.294700 0.311200 0.903500 
-12.147797 8.331205 9.024777 0.131200 0.195700 0.971800 
-14.273788 7.531538 9.297276 0.121800 0.326500 0.937300 
-15.216198 8.566046 9.269929 0.254500 0.145300 0.956100 
21.446869 8.333892 8.768495 0.646800 0.303900 0.699500 
1.449097 9.860533 9.672487 -0.191100 0.406200 0.893500 
-11.859825 10.537504 8.801682 0.253200 0.182200 0.950100 
-15.802986 9.998594 9.301527 0.214700 0.163700 0.962900 
-22.565878 9.637754 9.638704 -0.264500 0.398400 0.878200 
19.265991 11.575193 8.830690 0.490000 0.438200 0.753500 
-15.730408 12.318876 8.867418 0.052700 0.413600 0.908900 
-17.570648 11.751417 9.264132 0.129800 0.432600 0.892200 
4.653976 11.500303 9.665545 -0.139500 0.430400 0.891800 
2.752365 12.144408 8.606325 -0.248000 0.585000 0.772100 
-13.674385 12.416846 8.750605 0.164800 0.388600 0.906500 
-18.446342 11.506636 9.552156 0.011500 0.452000 0.891900 
16.760651 13.105223 9.056276 0.280200 0.584500 0.761400 
13.194340 12.994261 9.476381 -0.137400 0.459400 0.877500 
-24.505371 -37.636372 9.739926 0.386200 0.095300 0.917400 
-25.797043 -37.878803 9.925461 0.082000 -0.069000 0.994200 
-30.216751 -37.873978 9.969423 -0.135500 -0.148600 0.979600 
-29.329838 -36.859520 10.053438 -0.087800 0.131100 0.987500 
-27.052389 -35.771194 9.828909 0.121500 0.348400 0.929400 
-22.923203 -11.362459 9.845259 -0.081900 -0.306400 0.948400 
-22.340462 -10.442415 10.040071 -0.022300 -0.114700 0.993100 
-24.049164 -10.259157 9.848059 -0.266800 -0.131000 0.954800 
-24.439011 -7.271135 9.967477 -0.159400 -0.074900 0.984300 
18.323738 -7.434366 10.026542 0.136100 -0.137200 0.981100 
17.874092 -8.746492 9.700713 0.094600 -0.368500 0.924800 
16.735794 -7.976297 9.971400 -0.076200 -0.199100 0.977000 
-18.026638 -7.606309 10.078912 0.124900 -0.223500 0.966600 
15.282993 -6.397462 9.908412 -0.121600 -0.113500 0.986100 
-21.480301 -6.551828 10.074517 -0.061800 -0.091300 0.993900 
